# 3D point list with one line of data per point:
#   POINT3D_ID, X, Y, Z, R, G, B, ERROR, TRACK[] as (IMAGE_ID, POINT2D_IDX)
# Number of points: 391, mean track length: 3.7924516685137299
32522 -0.51008741507586297 0.15798927306274549 2.5021155396120971 186 151 109 1.0329203051137883 45 641 8 175 9 637 7 803
27434 -0.17277463471008658 -0.094202049065599675 2.3450936944817173 182 134 72 2.3117798053532654 3 1687 2 1641 15 2068 47 2178 60 2226 57 1993
32521 -0.51505097319219617 0.24602688742429216 1.7655880544846101 110 58 18 1.5627370529156424 5 129 8 174 9 645 49 373 50 768 7 843 48 899
32518 -0.53145361534531399 0.2481954771718049 1.876431827125179 97 38 22 1.6908819887249646 8 167 9 282 49 726 7 418 48 896
32517 -0.53546241954480722 0.25983517162587944 1.7947584392049158 75 31 18 0.65775455929190607 45 74 8 166 9 285 7 427
32514 -0.54063191245841224 0.24546729126749448 2.0132034101263367 167 95 55 0.97914989930707652 50 218 49 723 48 495
32511 -0.56432736490164981 0.21602129957285321 1.1669741819058159 160 114 73 1.2876895450274424 23 165 8 152 7 818
32510 -0.56055293401829409 0.23847515364205746 1.7849964629656523 118 64 28 1.2046095793274272 5 101 8 150 50 747 9 255 7 396
32506 -0.58189490725734461 0.21740182887424339 1.7256700051902127 0 0 0 0.078323975462322087 22 324 45 59
32505 -0.58411287643078691 0.23441638831874556 1.764464577884252 81 32 15 2.1918504673366548 45 54 8 125 9 615
32501 -0.60748434027756648 0.20555593400236552 1.1821320129052586 167 120 78 1.846933711829075 5 94 22 295 23 137 8 115 9 210 7 350
37585 -0.69573843402329649 -0.31248052945098959 1.4561092592538782 204 145 111 1.0327153844759041 28 180 53 604 54 530
32498 -0.6020667078658114 0.21826890090648629 1.9724929561019826 167 115 72 2.0090480668195716 8 110 50 727 24 354 9 612 49 917 7 1053 48 858
32495 -0.60826163119321708 0.21584191233285271 1.7007305625939582 123 48 16 0.7718674516351236 5 81 8 107 9 213 49 686
37577 -0.62111238350869313 -0.34080276905515156 2.1068487795815005 137 60 32 1.337090994024323 11 65 51 710 52 555
32490 -0.63276180813976179 0.17038953281780148 1.3750275738299269 132 59 34 1.8879591938561424 5 82 8 93 50 118
32489 -0.63741233883572457 0.15951853698475005 1.3839463475529012 0 0 0 0.37579077122586346 5 86 23 133
32488 -0.6284394568660816 0.23290194825702257 1.5171111275904681 62 33 19 1.5360274527413222 5 56 8 90 48 452
16819 -1.3995666166554213 -1.5810314069566793 2.9989326825763971 207 170 126 1.6871198568530674 38 696 39 1060
37572 -0.48352531396736581 -0.33255640459446034 2.1651131173915417 135 56 23 2.826448048982293 13 151 52 535
32485 -0.64317500907534708 0.20597092429905825 1.1101938079562852 134 82 42 0.53405051102894718 5 67 50 116
37570 -0.54679721578977925 -0.40765436073793965 1.7113937757331974 185 136 93 0.37142193011816121 52 521 12 423 53 524
32483 -0.63582531930429997 0.22186199372507068 1.7007753586568082 138 58 33 2.608885172777657 46 41 50 706
27390 -0.24050711091897453 0.18277325423228241 1.7468349020932725 97 37 19 1.0776734245768853 3 975 47 1658 60 1658 4 969 46 1251 6 1124 45 1300 5 1285 8 993 9 965
32477 -0.68382685089958728 0.17348716994007662 1.1575256880040568 114 61 21 1.3016630682871539 8 63 50 78 49 203 48 810 10 410
32464 -0.73781998230213175 -1.2189316663151253 2.9505958447607386 233 204 163 2.3100045203134836 28 937 26 958
32455 -0.77729696966620287 -0.18646413519221267 1.2376586544687669 188 134 87 1.8611194357952456 28 630 51 784
32441 -1.8471055897376278 0.25036517269629255 2.9301245387114312 0 0 0 2.4442423293288882 37 101 38 425 66 444
32439 -0.32574457943552204 0.3015767512451773 2.9207410214715979 218 189 145 2.0352186386818358 38 986 26 328
32438 -0.25908277891084547 0.052308118646183753 1.1283550238099993 0 0 0 3.1159054825458004 28 582 39 202
32427 -0.071140746842811312 -1.5444627190553546 3.0424151427689456 0 0 0 2.6618460773754413 39 675 79 852
27330 -0.26162347575231204 0.20489933732589422 1.7339351326944661 128 65 32 1.6034046038802818 3 122 47 1276 60 845 4 588 45 354 5 767 8 358
32417 -0.30630368384800144 0.10299165328767956 1.0703406150559986 165 97 52 3.3360161230547938 28 1834 26 2432
27286 -0.10046520789614782 -0.010424253546628147 1.5205131539951011 160 122 99 0.29365048125049786 2 302 47 967 60 1035 46 1283
16806 -0.295331464123675 -1.4409152582542584 2.9664502058772033 231 207 169 0.92367587092427561 39 676 25 1306
37559 -0.76302960284171584 -0.026912586373172714 2.046659855580796 0 0 0 1.1033753365410828 10 788 11 667 52 372
32373 -0.79081954649053476 -0.15977570723744117 1.2509296901944438 0 0 0 0.097734011227036177 38 1540 39 1500
6928 -0.86734701481440035 -0.26527024665953119 2.9095810325377331 173 132 86 1.7079766010998043 70 1533 68 1263 27 370 39 816 28 250
27276 -0.13842264960207884 0.02287481287331148 1.1261073458952655 154 88 43 2.2926781351541354 2 267 3 279 4 308 6 352
32363 -0.83126367070922513 -1.1648297804029117 2.9702449002376361 229 200 156 2.0257205730282024 81 1931 26 965
37414 -0.58387969361965708 -0.35485655538121424 1.5316658176551126 0 0 0 1.0798938867505572 14 302 29 449
6388 -0.2937395993715422 -0.21547920110160845 -0.53877767675397015 87 130 48 2.3928574936339202 74 1782 70 1710
27141 -0.15878600749360844 0.079837064564227192 2.0671959570512413 184 125 85 1.8854139512957309 59 227 47 313 60 960 46 347
32327 -1.8517209256225142 0.21709990295292883 2.9450426574055046 0 0 0 1.4422460380223185 28 416 80 1922
32294 -0.88593913548769887 -0.27129856980101258 2.915692251276329 215 170 113 1.6677305739774648 28 616 26 541
27183 -0.12064467221774951 -0.011358719761106912 2.0629575187725715 107 62 33 1.3946990936033135 59 368 47 418 60 436
32270 -1.3749932565369696 -0.68101876585827181 2.9040832239808259 0 0 0 1.1374393071555771 28 224 66 706
1451 0.071744458186495677 -1.7603510608631092 3.0026050084703031 178 136 96 1.1357439846201129 81 2202 79 2796 78 1760
16998 -0.27136812331001819 1.2485566253307812 2.9367928621921076 0 0 0 0.61471577091674012 72 647 73 831 43 1288
27478 -0.18191902489445091 -0.029499979985617968 2.3644961013102668 179 150 142 1.9911434587907351 3 2548 47 3316 4 2687
6725 -1.8094692820848 0.4409437748108212 2.9254982888085799 188 156 118 1.9209358259618998 77 54 68 604 36 44 39 584
32259 -1.6725782812919168 1.0671250911759247 2.9530439610548638 206 173 138 0.10995099041411283 38 1112 69 471
1440 0.24241828399367951 0.042955533307026207 2.9305824876915301 222 199 157 2.1068511812136848 80 2864 81 2441 79 2483 77 3023 64 2290 62 2601 76 2222 74 1816 78 1792 75 1702 63 1775 34 2408 61 1546 67 1568 33 2578 43 2013 73 1264
32258 -1.6259652428105946 1.0663711170470493 2.9631372848106028 225 197 160 0.7934604562674108 38 625 26 420
27110 -0.19003257156356917 0.14533621485901027 1.8309495557686082 88 42 36 1.2982171850336433 59 129 47 233 60 897 46 279 45 435
32197 0.26056648005096 -0.22572684000802795 2.5384851946839224 142 69 27 1.7088293969506945 38 246 26 92
27106 -0.21331835258756912 0.15455844591084544 2.0487181548867071 156 78 36 1.4903565000407233 47 221 60 236 46 267 45 411
6560 -0.61623924588518952 0.073894519866873523 3.1904016674117752 53 34 28 3.3431363219531498 62 252 70 1078
32193 -0.86683445288418481 -0.44254441910411207 2.9117051249824524 194 154 105 0.55789830628370274 28 170 26 57
32189 -0.35360639412881761 -0.3888075955972457 2.1770730374746927 149 72 30 1.3550534129697716 39 733 26 48
1370 -0.78644838736842426 0.59457628534493823 2.8902691596177066 204 170 124 2.1670017833808557 81 1656 79 1560 77 2396 64 1852 62 1370 76 1502 67 1171
32178 -0.53003574450932001 0.15870905456808776 2.8421783792423643 0 0 0 2.5125416743530899 35 3742 36 3685 37 2805 38 2438
32169 -0.60541884229590825 -0.32412832531532088 1.4570712900394458 206 146 112 0.10180994817838547 27 880 28 793
32164 -0.57234748934969393 -0.39070281051698491 1.588455033261317 151 81 47 0.57859076250451769 28 502 29 1117
37248 -0.6952356296977471 -0.35047017823320492 1.4431732486435758 0 0 0 2.5857127059484171 14 385 55 535
32161 -0.49051000092782304 -0.41895776822298963 1.8502382011226848 76 45 40 1.9060322371359093 40 406 28 484
1342 0.72545555311686072 0.77657813257439046 2.9836913482061287 181 142 101 2.1834310081849462 81 164 79 1388 77 908
27073 -0.36769057625984997 0.24992651348092265 1.8544237644607307 167 113 87 1.0420722003116205 3 69 47 87 60 88
32160 -2.2436771806497249 0.040135498316781461 2.6471090441939045 189 165 132 1.7528550667137714 39 560 28 437
1341 0.96365302077944259 0.47268853926862092 2.9573818590302787 196 158 113 0.35139952015780196 80 1440 81 76 79 1387
32155 -0.8601035743407397 -0.46109603779872482 2.9162679501196278 0 0 0 2.1730196218844076 42 882 69 1067 72 779
1336 1.0235988037351123 0.32343395382145612 2.9775248197593194 193 156 111 0.83877915940706849 80 520 81 50 79 1380
11609 1.04721186901508 0.4485194128383776 3.0170784701796278 0 0 0 1.4845876746258673 34 859 80 612 81 60
32152 -0.23630084262865125 -0.20565607272442826 1.6725929472845653 104 48 25 1.1956694382144195 38 814 28 96
1333 0.58722503352618527 0.74718964246573816 2.9678081641319358 188 153 111 0.90578140914372185 80 1541 81 966 79 1372 62 1544
32151 -0.50889390634870535 -0.38947536653903297 1.4700512548906828 211 172 143 0.63141098998846223 27 637 28 82
1332 0.58722503352618527 0.74718964246573816 2.9678081641319358 188 153 111 0.90578140914372185 80 1540 81 965 79 1371 62 1545
11605 -0.7620033276837499 0.74538608196739453 2.9085525440183293 175 141 96 1.8246862277117699 44 498 35 207 80 1551 66 1044 81 1240 77 1292 64 871 62 716 76 1252 74 503 78 655 75 753 34 1180 63 874 61 805 67 971 70 1230 68 1015 65 900 43 932 33 173 36 1024
32144 -0.90970081984732087 -1.1452965966611826 2.9439355701421932 106 80 59 2.4313671224775377 42 1165 70 1480 69 1283 69 1071 72 817
32143 -1.2827267714512143 0.66340148660876841 2.9253249102532277 0 0 0 2.4570572634767878 40 2666 42 2828 72 1846 81 3340
1324 0.64719466431575967 0.58471656406630801 2.960339697480876 219 187 146 1.5762148754123759 80 1478 81 916 79 1358 62 1571 74 1235 41 39 73 610
11597 0.37499684688346901 -0.1537233845974196 2.936181923937089 114 96 73 1.0323529238602547 77 2235 62 1606 76 1367 75 953 33 1643
27460 -0.17984541197645265 -0.18298468340254442 2.1827764345766019 114 61 31 1.2600790358381333 3 2293 47 2969 60 2908
6707 -1.9607262718654463 -0.14252619162141097 2.9351005947777158 184 149 109 0.75174915110123741 79 36 68 477 38 221 39 470
27055 -0.28239453814683479 -0.35820593665849848 2.1530697209982934 184 123 73 1.5552034704872206 57 2050 15 1461 17 1146 16 1253
32142 0.12144287551320943 -0.15467757253038292 2.9415864607274962 0 0 0 2.6413084959115074 35 3884 71 2097 42 2172 72 1538 40 2017 69 2031
11596 0.14358006117424763 0.77458462061517663 2.9300254420439136 110 86 61 2.1965977639503604 79 1310 62 1459 78 825 61 928 43 882 44 548 63 1035
32082 -0.58914645922778053 -0.37274188328012392 1.5368760191758326 166 103 62 0.14852798626312769 27 1276 28 1349
26989 -0.19451237014185094 -0.33079928511217715 1.0892621972436556 216 173 135 0.25294092538209711 1 2796 15 2663
6443 -0.20803800322023777 0.21647805993324457 1.4640000494682461 145 83 42 0.69241143093337409 63 973 70 2138
16716 1.3391809703277242 -0.58769586172733135 2.9562814466721488 55 85 15 1.6039402183210578 68 2518 39 2374
32076 -0.67209825489602282 -1.2321007466214413 2.947051953738149 0 0 0 2.1825103659523593 40 1503 42 2309 69 1838 81 2403
1257 -0.21460769119117332 0.53183957499534085 2.9174561804014369 179 142 100 0.88410066892826533 80 1467 81 1082 79 1187 36 1204
37154 -0.53204838784787878 -0.41253241885050607 1.734164391431581 127 75 35 0.44751766179456021 14 637 13 160
6335 -0.75290946302475792 -1.2370939436187152 2.9842592077857879 188 150 111 1.5457698883805169 66 1502 78 2098 79 2771 68 2079 43 1805 73 1165
32067 -0.77952451605383966 -0.053874080028816343 1.5517940967171295 178 147 118 1.3456000184173975 39 848 26 841
11521 -0.51593851441810668 -0.32220106813769395 1.0948845321292444 187 115 75 0.38644201126018335 36 3658 35 4154
32066 -0.775925770588893 -0.10404517585615822 1.5412288326745487 122 87 47 0.7138198671795708 39 822 26 1080 11 1046
32063 -0.7327301905854231 -0.27176894700947951 1.5236918927122267 213 165 130 1.9449431197799467 27 1048 28 1011 52 1022 39 1142
1244 -0.83481127556837853 1.0921163847559738 2.9155306653078825 200 168 129 0.52270142930229946 81 1318 79 1160 64 816 62 653
32062 -0.73629503958022469 -0.30106467217611482 2.9153466445015019 208 169 112 0.55756623029050345 39 2035 68 1814 28 1009
1243 -0.83481127556837853 1.0921163847559738 2.9155306653078825 200 168 129 0.52270142930229946 81 1317 79 1159 64 815 62 654
26968 -0.32196601285123666 -0.38993365085804149 2.0298128677838809 187 130 77 1.9618619581414485 30 1398 15 2111 57 2063 17 1981 16 2102 55 1871 14 1294
27175 -0.16157950703304194 -0.011198384253921787 2.1700991947062178 118 61 31 0.92819427880622207 58 251 47 399
6422 0.023199375991930983 -1.9067870244594147 3.0881014677056156 219 176 133 1.4078674448159976 64 2330 77 2550 61 1175
32055 -0.62305603692056122 -0.37529219552446724 1.5657686073196724 129 63 39 0.55428750670746074 27 879 28 986
11509 -0.15477854384540438 -0.28116007852490554 1.8393004448056676 112 67 48 1.2951992603779541 34 2398 35 3843
32044 -0.29393582646257438 1.2180703160272399 2.9330704621743076 176 150 133 1.3417979809859411 40 1106 68 1958 28 872
1225 -0.8787204117851164 0.73909513608104283 2.897305441048271 220 187 144 1.6035896543676094 80 1546 81 1263 79 1090 77 1959 64 1484 62 1331 76 1228 67 954
1018 -1.8460729243959124 0.2614405691991239 2.9293399558993785 192 160 121 1.8426610743248746 80 469 81 697 79 91 77 59 78 14 68 572 36 34 72 606 40 320
21771 -0.37288030544117534 0.26300451575090456 1.9321064618931465 158 100 60 3.1299766659089645 35 413 23 1370
32032 -1.0233061010907696 -0.50438797880653696 2.9194899823161644 222 187 123 0.11722997270286256 27 732 28 810
32007 -1.5320952740598859 0.080035296365809638 2.928396126217268 0 0 0 2.1263266772825027 27 782 35 1262 29 984
1188 -2.0191866582793891 0.26377485564793168 2.9352600326501266 204 172 131 1.9026677025312788 80 1350 81 1726 79 815 77 1830 64 1378 62 1276 68 1409 71 1224 35 44 36 757 38 962 39 986
31995 -0.77562321838008474 -0.16098920022450153 1.8773797627359177 169 138 109 0.053381189963452064 27 383 28 635
16326 -0.78400996172606774 -0.074534396072667167 1.4615630151605417 107 64 29 0.78010303776660872 38 832 39 278
37079 -0.57749345223776449 -0.40540973249802165 1.8834893074617511 147 88 54 1.5338253017692625 16 3064 13 1575 55 2964
6053 -0.71555720925626065 -0.15723702331366779 0.99389311785828738 217 156 111 1.6652477507960877 66 757 70 1072 78 131 68 791 71 735 69 695 73 428
26806 -0.31903872879575346 -0.4142581444538817 1.5740254518613332 160 100 50 1.9447258463006161 57 1050 15 1121 17 877 56 1028 16 908 55 790 14 570 13 541 1 522 54 442
6557 -1.0155726555687805 -0.90494182759817754 2.9413066152983411 174 137 92 1.7727234466323301 80 1090 70 1037 68 700 71 919 41 1110 69 742 72 816 39 725
31992 -0.68521912636252313 -0.095431491688078615 2.9124357796152478 79 48 17 0.77857854688156425 27 695 28 623
1173 1.0025620442793604 0.26513266187800771 3.0092204287870836 196 160 110 1.5216107959889689 80 461 81 44 79 768 73 296
11446 -2.3685889256165202 -0.063824569587055818 3.0177488706244122 0 0 0 0.58111611414698494 75 1474 62 2334
21719 -0.74954269997501299 0.35430400514919796 2.9355091131499056 186 158 137 0.93759975857727762 21 2588 23 2581
31982 -0.73278058138023883 -0.26871059083905424 1.5426198912739999 68 31 12 2.4585501914777255 27 715 28 588 12 721
1163 0.71497068647163087 0.33189988574203527 2.9758114036936494 197 162 120 1.1619413297151218 80 530 81 87 79 735 77 930 64 595 62 468
21709 -0.30247516297136851 0.18088838246170069 2.2748309484142353 194 171 161 0.81238640720502264 21 2491 23 2459 22 2421
31924 -0.97341815000020571 -0.12909272339652322 2.9085268783373408 216 184 135 1.2673595404793012 70 1156 28 318 26 588 25 551
31916 -1.0956018242386463 -0.34037997672709142 2.904258943742569 199 154 99 0.88908260295545272 68 1281 28 280
1097 0.057376206770573805 0.30620793706321292 2.9216869928132141 186 150 100 2.2162890531040844 81 209 79 560 77 1591 64 1187 62 988 76 946 74 691 75 537 63 680 33 441 35 619 41 158 73 325 32 1354 19 1028
31893 -0.65167863694775818 -0.36303781874412072 1.4871715576236118 217 163 129 2.0837312935851866 39 116 28 142
26704 -0.87019574143572564 -0.16666221877782469 1.2153522622639368 43 16 2 1.4226005471551519 19 1269 15 603
31791 -0.15692628741321876 -0.27486778950040885 1.1884084837308462 77 27 6 2.0988372440944301 56 223 16 116 18 521 1 388 58 494 57 290
31790 -0.17342000772051802 -0.31040307560231772 1.3330438259617932 68 23 13 1.8918606388821162 56 923 16 1226 1 416 57 323
31739 -0.56478260865917107 -0.37299800422995216 2.0901081766975449 156 72 25 1.0351633194541268 56 1832 16 1760 54 852
31732 -0.43114184892323332 -0.45472917891209363 1.729867641964409 52 29 11 0.76149833478195328 16 1747 53 1109
11186 0.61304809600698695 -0.14470484057337893 2.9518571990139559 196 162 116 1.9858390231356051 33 1318 43 1065 73 377
36798 -0.24932026394484608 -0.38201737975668648 1.3303984169631298 76 28 21 1.4569627304590844 15 507 17 362 16 227 55 154 57 431 56 989
31711 -0.33842403265354742 -0.41549396437432012 1.5179410157714586 182 113 69 1.9959969780725821 57 1055 16 1524 14 1126
892 -0.54537127008726116 0.19539529604028449 1.0413316050237948 214 165 125 1.8415982576343393 80 1955 81 1616 79 1057
31702 -0.1435230274794162 -0.23332899243739791 1.8808923094251802 120 52 33 0.077485145352104101 30 1117 16 1490
883 -0.64811367141153442 -0.091483655284923027 1.0109871727306918 189 120 81 0.85761012028325045 80 1887 81 1588 77 2377 78 1268
26606 -0.67016242095767264 0.44262017697621564 2.9331942682237249 202 157 92 0.1076569306299088 1 59 15 133
31693 -0.67786243667068247 -0.28553132999712205 2.0831691690504806 128 73 40 0.56311592406253552 56 657 16 1328
36760 -0.19664290280957228 -0.29930711249057257 2.0786359280392759 0 0 0 1.1544885597031429 56 2023 57 2480
31673 -0.27228983645245419 -0.22702125116876365 2.8837889248755615 216 189 82 2.5704184412820466 1 371 16 1248
854 -1.2789781673721325 0.69161380980778842 2.8999654197045612 204 163 119 0.74285984593862753 66 1070 81 1325
11127 -0.2291967356591752 0.16569743570484141 1.5080250953847141 96 76 78 1.0796595071693889 33 395 35 493 31 263
36711 -0.66227719755777925 -0.30402984775647118 2.087657011477952 60 17 5 0.30583258516254519 16 514 14 1049
31624 -0.39049881355378435 -0.39881087292359152 2.0755661161045222 182 111 59 0.15605490437452202 16 925 14 590
805 -0.80102583219326873 -0.59261451388094666 2.9249531014708539 201 166 117 1.8560320495272846 81 954 70 350 68 729 71 861 69 693 38 57 41 635
36688 -0.71092123349648695 -0.27158080381029281 1.9452905827462739 147 68 35 2.5482070860595423 16 1030 14 909
5662 -0.91251095085978917 0.50509211455977843 2.9089618946226108 179 135 96 1.5231584262353797 34 4390 63 2292 67 2002 65 1848 35 4422 36 3939 38 2815 22 3031 26 2783
26415 -0.1804492559499026 -0.33034294923644258 1.1191284946043087 56 23 8 1.9958341979859255 1 995 58 1444 57 1341 17 817 56 1376 16 1231
31601 -0.21736188213827548 -0.35309805126486588 1.7988570100065862 68 28 12 1.0901947487429853 17 842 56 973 16 849 55 735
31595 -0.1683671729703434 -0.29846780214006929 1.5233328185113197 139 88 48 0.82944020334689406 57 1329 16 808 55 713
31594 -0.15596907007736019 -0.31347798204523747 1.3554909555605237 195 131 110 1.2951296432929948 57 934 56 906 55 57
775 -1.2264364952506457 0.8655424723891374 2.9147601413057518 224 192 145 1.3701875724199 66 1111 81 712 77 1123 62 19 76 649 61 396 68 606 65 604 35 112 36 241
11048 -1.6024952859383776 1.0390532637696224 2.9397608536412099 185 151 113 1.3002942076118584 63 369 65 627 38 618 39 668
31590 -0.13288681758283943 -0.22411802566154521 1.8383597417430741 171 96 67 1.1593441510587095 56 878 16 772
31565 -0.62203094357656485 -0.38941425506840316 1.6497437779187438 110 50 23 0.47912430850916499 55 483 13 238
11019 -1.7280071768944203 -0.83253792432875995 2.4185727328654743 207 166 112 2.6890728975367697 34 3035 43 2960
31558 -0.61418161298352236 -0.336252060930889 1.1903158993870404 156 93 50 1.039333869479284 16 479 55 465
36641 -0.66442553529456194 -0.36049238857483945 1.7597772599564059 136 83 41 0.44614513432328362 56 665 53 210
26575 -0.26130583583136718 0.55052739545374607 2.9221773578882235 183 141 98 1.735656596543842 64 1616 34 1291 32 1231 20 1092 19 953 35 464 36 633
5822 -0.39238953676992727 0.2614876977445002 0.047698071668329477 221 188 147 0.018519042692337756 64 120 67 584
31554 -0.55664744533508492 -0.35600677546707676 1.1588286044793168 124 61 17 1.2313027334396496 16 455 55 431 13 206
735 -0.89732230094955989 0.26138372272080845 2.9070400366813343 187 147 98 1.2634950092672099 66 396 81 457 64 161 62 126 70 537 68 388 77 354 69 314 65 527 36 311
31552 -0.52244376439919449 -0.39414715035617853 1.1290450648185892 130 61 20 2.1799831593719121 56 1105 16 440 55 885 14 636
26464 -0.1893511617400038 -0.32249598953317193 1.2590058502222636 110 54 34 1.0771076762085054 1 1782 58 1842 57 1774 17 1530 56 1789
26671 -0.20158089454814798 -0.31294302446789735 1.9627079700239647 176 90 59 1.2431974379100437 18 572 15 424 17 297 56 293 16 170
5918 -0.80533656651350916 1.3583114452224903 2.9351602563637744 212 179 136 0.27185297186688989 64 1834 74 1415 67 1222
31551 -0.50817044741596995 -0.41054037162669504 1.0965600523350927 141 68 27 2.2790764737338978 56 546 16 430 55 401
11005 -2.3371100760696724 -0.056880334626526682 2.9658160215079863 214 169 110 2.8563250737064614 81 2678 43 2136
21278 -0.16847790864360182 -0.29304032982010947 1.1091918386557014 0 0 0 0.14068015906067308 43 1445 44 1074
26458 -0.18837212674258125 -0.14948117553128026 2.5195061632360161 176 109 31 0.19484750293150682 1 1520 58 1818
36632 -0.58808737256399646 -0.40044540178291271 1.5711872477333066 171 106 74 1.7573087577932041 16 1001 55 460 54 203
16086 0.068378415419218269 1.3382906187833585 2.0772037393956562 88 125 48 2.8854932735618979 68 2290 72 1492
31545 -0.50767023691708602 -0.35589084686384764 1.1922964922546386 144 83 39 1.405843595514896 56 525 55 391
726 -0.60407064806066202 0.15322725352766142 0.98921690098123172 221 147 104 1.403811134070742 80 524 81 413 78 176 69 237 72 125
36627 -0.56039429751397751 -0.35952560294454872 2.1404871258727614 169 105 61 1.2041070790659918 56 585 13 181 54 192
31540 -0.46715985146775763 -0.41989665486008038 1.5625586703993355 213 160 121 1.9192934955294634 17 490 56 536 16 398
31539 -0.46436680816131193 -0.41111937563065243 1.9793767633539197 126 53 21 1.2970748625844044 56 540 16 394 55 361 14 237
10993 -0.098464701172352551 -0.1388177019576943 1.1275398874282434 151 107 72 1.345309718026918 44 1543 43 1667 41 1519
513 -1.5086645829295202 0.31099425951787374 2.9153086229967538 205 170 128 1.2188374931458938 80 1941 66 1376 81 1693 79 1465 77 1880 62 1311 76 1090 67 1089 70 1639 68 1382 69 1139 65 821
21266 -0.21530631990216925 0.17667501758596227 1.8029123399807907 161 81 43 1.342982169063399 32 2105 19 1909
31534 -0.45229592261227947 -0.42526408351975076 1.118459724709417 125 58 16 1.977839893442086 56 511 55 356 54 477
715 -0.49654476636900041 0.13809296271027038 0.97209452115582495 236 193 159 0.846809760175527 80 504 81 373 79 425 63 115 78 211
508 -1.3028044100488707 -0.045544841577619039 2.9127509329893702 218 185 142 1.6986497235996498 66 1601 81 1635 79 1446 77 1920 64 1470 78 951 63 781 61 964 67 1072 70 1598 71 1201 69 1115 65 1037 41 1356 42 1186 36 1341 35 841 37 1090 72 803 39 1209 40 813
21261 -1.139217501612271 -1.061638084300317 2.9434433234492587 195 146 85 1.6062788469218323 33 1380 19 1820
31529 -0.418475850150208 -0.40565999450898227 2.064121629644462 179 101 52 1.6080818147565346 56 1076 16 361 14 210
31525 -0.40393844263473289 -0.42767656072653271 1.7870811288702493 134 70 43 1.1594446234794566 56 489 16 351 55 298 14 198
15856 -1.6782402767538769 0.59744187851238795 2.9288104845558856 0 0 0 0.45206893003654314 73 675 74 1099
36609 -0.48556292942125606 -0.40471259402112991 1.9862210232641424 121 50 20 1.2112500849370063 56 552 55 377
16063 -0.43799120239830036 -1.3847085860808961 2.9540325478408036 0 0 0 1.3276904236964198 42 2283 68 2047 70 2788
31522 -0.3960444816377392 -0.39678461793302588 2.1208559369252655 125 43 6 1.5369503419097252 56 479 16 336 55 823
703 -0.38896757347500621 0.16503559422974781 0.99405323952202063 189 133 104 2.2595904870270012 80 546 76 1251
21249 -0.16891326684038627 0.0079768409754156239 2.1887040966035731 0 0 0 1.696117058972801 21 1349 32 1916
36606 -0.4552334648681568 -0.43858439272593991 1.6340922813538352 136 63 30 0.53210800534256808 16 392 55 359 54 133
26333 -0.19674153438439862 -0.17600538933762264 2.3593362817425114 168 126 68 0.41197054874185679 58 1010 57 890
31519 -0.37662027276580545 -0.43627581443162872 1.6283445457864385 178 117 70 0.94715459341457153 56 469 16 329 55 278 14 181
700 -0.21674688515153331 0.41425874083547015 2.9102583012585259 182 141 95 1.9678204382909015 66 934 80 604 81 312 79 1168 77 1478 64 1073 62 890 76 907 74 632 78 757 75 458 34 469 61 568 67 613 43 301 35 503 73 317
36603 -0.44889039164820299 -0.42232467184762651 1.8753582366040202 74 32 20 0.95798069178607648 56 526 55 347
31516 -0.36409927863443103 -0.4218840677744658 1.5560843760549004 182 119 66 1.2133959078929988 17 437 16 321
10970 1.0906388851220674 0.10836643386080783 3.0005257901301072 205 171 133 3.0541648660283638 34 1545 43 1361
21243 -0.26963110250323791 0.16874370410606582 2.20027768804903 83 52 21 1.5958713713225383 32 1864 19 1662
31514 -0.33985610596295174 -0.41194829892461271 1.8522848357103121 76 29 16 2.2530258627513167 57 531 16 300
10968 -1.8766939504938982 1.1599313095038473 2.9401748084490453 220 183 120 0.59787918780960125 74 1408 78 1167
21241 0.61092311874839234 0.11756384796724197 2.9150846271392901 201 156 91 0.31258873042111179 33 1249 19 1647
31511 -0.32179444507551852 -0.39876010426596209 1.9109426899058526 157 71 46 1.1559817632850617 56 1029 16 284 55 229
36589 -0.38673692101130425 -0.41684181308435542 1.5787992399752926 207 165 125 2.7261696067832482 27 151 55 279
16043 -0.24507492364129141 -0.35994955971991183 1.2364838059035228 70 33 27 0.88872315614634734 71 1867 72 1293
31502 -0.2732044673597297 -0.38202758623579269 1.4354816406804658 143 74 35 0.039686073506188135 17 378 16 243
21229 0.37307589714824874 -0.7139903219237288 2.9461556265427156 193 151 100 1.2629528834600872 32 1672 19 1400
31501 -0.2669943221443673 -0.38943181744698169 1.8129856933641446 200 137 103 2.708946339371813 17 858 57 1024 16 238 55 162
21435 -0.17372120848256312 0.12244753301734881 1.7711671330236285 105 42 17 2.0423310504275003 21 1033 60 1348 6 975 23 581
682 -0.074693382180328283 0.14471665709156978 0.46238727740520008 218 190 142 1.4991399449648046 80 588 81 186
31490 -0.1823453640222136 -0.3285671360128935 1.4557787492741197 0 0 0 0.30157727982511706 29 145 30 348
36571 -0.27843158918767291 -0.40324792675344417 1.6542091927439875 170 127 95 1.2288805613525884 16 251 55 182 14 103
31484 -0.14452548976115864 -0.25420252676590255 1.2842891411326087 0 0 0 1.5217068748314997 17 778 56 203
26396 -0.11811909218300108 -0.21008479598325688 1.2581296102343775 91 49 33 2.3642342015852207 2 868 20 1787 60 1110
36570 -0.26475026286355219 -0.38031620436926838 1.2226347016793013 170 112 74 1.1366123267631563 16 235 55 176 14 96
5544 -0.64604356721293887 0.75524071885742439 2.9075486372172441 195 157 110 1.4781555183443913 75 1018 33 1484 43 1337 73 859 79 1578 81 1659
26297 -0.12417836548165616 0.046900518712340744 1.8087065583058417 125 63 50 1.7808593773162771 59 984 58 860 60 997
31483 -0.14718446803194554 -0.26032677873973809 1.4690766804608231 157 74 43 1.137758644822509 17 226 56 206 16 100
21417 -0.24583494429219035 0.14367885447742465 1.4508408848125813 100 42 20 1.8649173082422663 23 528 6 225 45 382
664 -0.16599209802124967 -0.28202337294994445 1.0039065218412688 208 166 126 1.2899130143481723 80 1177 81 82 79 417 78 762
26393 -0.17557074372892376 -0.14338149582340731 2.1606385809648261 88 36 4 1.5574531032063013 59 1506 58 1373 57 1292
5847 -0.28803149342757495 -0.23515928728908295 1.1503750862310196 130 66 34 1.6811644617609804 61 779 67 843
36567 -0.24950847941959764 -0.38088466022292183 1.5198593692721072 130 62 33 1.1932706044092498 56 358 55 148 14 86
31480 -0.11995916589599914 -0.17329219727968548 1.9384283957084059 133 52 23 0.60298649908853275 56 861 16 63
661 -0.44094040967680775 -1.074998467280974 2.9481024639407636 193 161 114 2.03762228314074 77 1499 64 1195 43 748 74 1016 73 568
31479 -0.10657345009842678 -0.031597794692190505 1.0914096977735432 198 149 117 1.6001589928844795 56 1317 16 43
36561 -0.1795794516834078 -0.276507500167397 2.0595689914820867 180 120 86 0.43244380306714714 16 139 55 61
5742 -0.70801592042266037 0.10653405009079042 1.4238641860507737 99 87 87 0.54475988237633644 61 70 67 133
31474 -0.098516485419212069 -0.020756900758272436 1.2439216920415774 63 22 9 1.894551413244324 3 316 1 862 4 750 57 1235 5 1478
21201 -0.10324486490028112 -0.03342256163943675 1.7967744175437816 95 30 8 1.500527427444267 31 361 19 1180 15 907 4 757 6 760
31472 -0.11639420811505286 0.017694739684923473 1.7993635974222637 40 17 6 1.9790221347704382 19 381 18 991 23 653 45 848 5 483
36557 -0.15186257751600529 -0.27032716620258018 1.7393857869362994 0 0 0 0.047737208305266052 16 108 17 236
31470 -0.098144973891786794 -0.13114479178273383 1.4329200318498443 100 43 13 2.0880899826734436 20 2340 31 2959 19 2727 32 2497 59 2371 3 1701 1 2082 47 2188 60 2234 15 2378 18 2361
10924 0.96978912492438252 -0.39633910941227413 3.0221107625044326 187 149 112 2.4470308409790253 80 146 81 13 43 527
444 -1.402151927038169 0.95650565162342904 2.923307047114347 199 161 115 1.510451829891712 80 1635 79 1002 77 1073 64 706 62 585 76 620 74 422 78 546 75 290 63 385 34 68 61 361 67 546 71 637 69 842 65 618 43 227 35 70 38 1084 73 285 39 644
21197 -0.1334074172409685 0.047938524030071213 2.0640371012132555 174 117 74 2.1429610624332236 32 1457 19 1150
31468 0.19965670536213509 0.80437559392387115 2.3545464580678677 86 127 33 1.8270805113729807 4 2719 5 2143
31461 -0.52340169614672949 -0.18940221445529729 0.97737639875801319 36 50 24 0.35273749677389576 23 885 5 1626
31457 -0.589091046424846 0.15637059805606562 1.3369374254026389 54 18 2 0.89558165973040171 6 1272 5 1407
10911 0.73387663309314788 0.035562346338263551 2.9627801173165467 203 167 128 0.71876332636065909 78 427 43 381 30 76
6015 -2.3055094633984701 -0.16386035562333839 2.9234562340218626 0 0 0 1.6214702450637075 75 2059 74 2388
31450 -0.51758869324097978 0.21245741917665392 2.2830493742609042 187 170 154 1.0599360894095124 49 1099 7 1069 24 1147
10904 -0.71122189284114101 0.63551240225318317 2.9132799380866201 224 190 142 1.3064721975931941 81 511 43 258
31448 -0.57836579452146619 0.24235902703181153 1.9360181302915691 0 0 0 0.1175444972146447 22 944 23 160
629 -0.87275720341815388 0.37867720699405077 2.9046993983131077 176 133 99 1.5191457721426511 80 3273 66 2534 81 2948 79 2856 64 2876 77 3627 62 2448 62 2796 61 1726 67 1747 68 2481
10902 0.96299294325759111 0.27979949494984535 2.949092690486109 0 0 0 1.0974692260824213 33 581 62 503
31447 -0.099170151380683469 -0.099147890008970771 1.9616897611237725 186 97 63 1.2031641699895463 45 869 5 876
628 -1.6927745431579266 0.13080630010841143 2.9230657113528591 221 192 151 1.8897427397075082 80 3259 66 2523 81 2982 79 2782 77 3588 64 2825 76 2326 78 1994 63 1869 61 1652 67 1690 65 1627 36 3063 28 1478
421 -1.4222117180194471 0.810359077770614 2.9192767904843029 228 204 160 1.1840179206403827 80 1574 66 1102 81 1370 79 965 77 1075 64 716 62 1275 76 1118 74 1071 78 540 63 766 34 1107 67 870 71 1118 75 713 69 1131 65 891 33 989 75 992 35 799 38 1062 73 874 39 1009
21174 -0.21873110002029628 0.9219219194003816 2.9313538026975277 198 158 99 2.1960328030602119 32 1096 19 868
36531 -0.73146484927285271 -0.27192786272402797 1.1967405052214266 139 76 35 1.5810285759947975 28 586 11 596 53 825
15985 -1.4486903847994297 3.0831683092975077 5.1950822217231112 65 91 17 1.0992139201376911 69 2314 72 1086
31444 -0.19459214153967036 0.15162242673100634 1.5851676703823443 108 45 19 3.09747809952942 59 1361 5 805
10898 0.95638829296429462 0.35714188009065539 2.9478130697248148 0 0 0 1.1464924468830042 33 518 62 495
31426 -0.49518610827285975 0.23062992881157116 1.1004628395998106 134 75 33 2.0115559901063471 45 130 50 232 9 304
10880 0.55284661149150371 0.60017667456862167 2.9456185598145801 133 106 78 1.9343933049556543 33 1097 80 1488 81 940 74 1220 34 1439 43 891
400 -0.76007198947255472 0.66789682870829314 2.8912536361929488 191 155 105 1.4169284956839732 80 1517 81 1218 79 1105 77 1294 64 880 62 737 76 755 63 873 61 795 67 962
21153 -0.16358443034385819 -0.28604947967612748 1.252115774346916 99 39 11 1.5427570520612388 19 562 18 1743 1 1323 58 1664 58 1420 15 1418 57 1582 17 1111
36507 -0.77364550730741222 0.040876650235939012 1.7372631425494993 168 113 76 1.7989179672530284 7 685 10 823 11 702 48 739 51 919
5481 -0.76209383669218256 0.01553402166769652 2.9141672163535746 176 135 91 2.1607426505433946 70 443 66 859 65 793 35 341 68 862 36 343 38 336 39 329 25 214
26234 -0.13558021002725748 -0.22983033452397791 1.8987174646256784 90 35 25 0.64019965928527844 58 464 15 323 57 237
31420 -0.18302054628157435 0.11316735850681872 1.0906177982411009 0 0 0 1.6717706703254251 6 678 21 1014 4 656 47 867 60 920
31397 -0.34304198813913744 0.23231070464991194 1.7680723795077824 0 0 0 1.8242606864844437 45 1674 46 2011
36466 -0.65636800535419249 -0.28787381454043764 2.0031670651887099 110 53 26 1.7222919689698102 51 1512 11 1265 52 1235
31379 -0.4989881243748267 0.26144140558239909 1.795688895148563 93 36 9 1.1910902730418385 45 1667 5 1890 8 1666 50 1625 9 1500
10833 -2.3238228201882873 0.09578589170497126 2.9706764513591621 204 163 109 2.6806016240493342 79 3019 43 2767
31372 -2.7973399910030023 -1.4098699795517908 -0.23281485272563107 85 95 96 1.3227501421804941 21 2201 5 1817
31365 -0.14596460291801891 0.065733066123524378 1.896407286251778 163 88 46 1.4472943461230841 45 1411 46 1638 5 1678
546 -0.93944477997525933 0.7823449154012373 2.9034540065060721 186 150 102 1.5372923514989068 80 2028 66 1420 77 1947 64 1472 76 1224 61 767 65 903
25560 -0.27495766014042045 0.16289973588473813 2.2022386273166461 46 32 11 1.8658879058632043 59 1355 3 978 4 968 6 947 5 1066 50 1175 8 984
4807 -0.67942341054025623 0.1260815357136561 1.3849379488903388 125 68 39 1.507149726383527 63 1354 61 1440 67 1491
4805 -1.4754099558545608 0.84179805388625017 2.9164111183440649 217 193 149 2.3443634234407429 76 1706 63 1328 33 1473
25552 -0.20667706928075047 -0.12489559115690825 2.4851394915245177 199 142 63 1.6334548712435462 18 1489 15 1377 1 1281 17 776
4799 0.32273707782396449 1.1717542924066975 2.9852532862389931 0 0 0 2.7661239522408243 74 1108 81 1609
25551 -0.12860863800832714 -0.043721852508566063 2.5536945685075758 198 126 42 2.0759635722296079 18 2776 3 768
4798 0.30559805984053462 1.0198449046318201 2.950753092394518 0 0 0 1.6854841654197634 74 1476 79 2093
25549 -0.3325522394416342 0.035987768120860561 2.6945883246716753 180 85 83 1.3280480380822641 20 593 3 682 4 640 5 755
4796 -0.11694485470165136 -0.075519542763170314 1.0275505563441403 227 164 121 0.065567222547343831 76 1301 61 854
25548 -0.18568257511055952 0.093893572019951979 2.1597965869292075 94 30 0 0.44240678636507835 3 677 45 1310
4795 -0.22095340338572925 1.0977286030879856 2.9247411106257739 212 180 142 1.7701446415519317 74 1085 77 3373 67 1614 44 1167
4588 -0.42024922694213451 0.24968720867029798 1.4913257224116563 129 75 47 1.4404782088396395 76 275 67 571
25341 -0.15543594772988586 -0.13130001520843548 2.2568376631285552 206 106 18 1.7503166670604133 19 1730 1 1278
4792 -0.17653596944170111 0.11002075961976571 1.1379896231363003 93 74 76 1.3918298970651548 64 1932 76 878 63 1225
4585 -0.34339533194525002 -0.28973959131545723 1.0806172343497249 93 48 27 1.6280926241349303 64 383 77 563 63 191
25338 -0.17229154070893965 -0.086098946489033545 2.3589705001380765 196 163 112 1.9632457519249176 1 1274 18 1478 47 1417 3 1058 4 1042 17 747
4791 -0.18447072620539745 -0.3036543588391214 1.0087886055189288 204 173 151 0.73389948770710478 64 2257 63 1216
4786 -0.30915427568693449 -0.27977384045211379 1.025903007269247 138 75 32 0.91917946843685994 76 1496 61 1195 77 2085 62 1026
15059 0.17989218963167236 0.74070924552729955 2.9277957215238777 218 187 128 2.573467980470602 41 761 71 981 31 1515 19 1529 30 116 73 608
35812 -0.78828115385855257 -0.02994667087370334 1.6123064858763938 136 82 56 0.31786363013397922 10 228 51 355
4785 -0.38161250559448662 -0.31122905870542633 1.3154057228895457 139 97 72 2.5219506556621956 76 1210 63 1185 67 434
4783 -0.45291175681939083 0.18855259015105152 1.4007386952155991 56 33 25 1.7694426729268766 76 1505 61 1026 67 1157
15056 0.17682327768474382 0.77981834785744475 2.9399549411404999 219 189 153 2.6141807502405459 41 758 63 1040 73 604
35809 -0.7870458187123508 -0.057919906811412424 1.8269573855551431 172 128 93 1.0943357008254457 10 198 51 327 11 298 52 363
4782 -0.39568741034804294 -0.30462060354515003 1.2528817101309215 162 125 102 1.2290785019787414 76 1741 63 1177 61 1456 67 1473
25535 -0.095097628495272812 -0.10430625010918188 1.8322345107773075 185 110 78 0.83444358769513638 59 491 15 197
15055 0.17648319121623599 0.78000565701204716 2.9447715044427931 219 189 153 2.4918088433382786 63 1041 73 603
35808 -0.79698985589824056 -0.077863878459460661 1.5382949074608299 187 151 119 1.4726376503948706 10 181 48 123 51 309 11 280
4781 -0.64590185623296537 0.75333917716692311 2.8797767615678058 183 144 103 1.1411424562912549 74 1471 76 1523 63 1174
25534 -0.098862654665463484 -0.086504471013372594 1.8508527610272814 180 112 73 1.7629600733082971 2 369 18 323 3 369 1 228 58 297 15 929 47 488 60 1074 4 384 6 415
15054 -0.005560219201695478 0.86895924322189233 2.9419051907004485 0 0 0 0.40280311122222412 38 1074 41 768
35807 -0.8136741459139093 -0.081797374486359375 1.1273360792065432 166 112 78 1.7436085575761104 10 174 51 308 11 285
25532 -0.20229085023034954 -0.13245677223980259 2.4673802741413517 201 134 47 1.4627533464353966 1 292 15 982 17 217 18 1090
4779 -0.49766008684306096 0.22143855385287323 1.4454973321437974 45 29 29 1.1207520557411923 76 1503 63 1170 61 1024
25531 -0.063380261769327345 -0.056420524760386538 1.1194083215078774 191 137 93 1.0958769989307697 20 690 3 352
4778 -0.4930098168496751 -0.34690890365835603 1.3619299495927677 217 186 155 1.2209333087740188 76 1469 63 1160 61 998 70 1761 71 1384 72 930
35804 -0.80179256864500403 -0.097246456177564458 1.3795260303333878 101 47 19 0.44440963452818877 48 115 11 269
15051 0.6137355288218036 0.75782207030768545 2.9543763809531316 0 0 0 0.21587879530328191 35 1147 43 838
4571 -0.57279054726200318 -0.26391583270229602 1.7378603969481401 46 14 3 1.5555291434398957 75 141 63 97
25324 -0.13902152952892627 0.053074687909494656 1.9347008959850336 153 68 31 1.4520595702259407 2 1036 3 1023 4 1020
15050 -0.44794060187341828 1.0870238215078136 2.9231605248648584 225 202 170 1.3180449950609154 38 1123 68 1379 73 593 41 786
35803 -0.79167882016972513 -0.098404979040972826 1.7464767246763813 181 127 83 1.2187901876846172 10 758 11 262
4776 -0.79373628704430532 0.59940097070615839 2.9291533121023026 0 0 0 2.2269692204334994 74 1483 80 1986
25529 -0.1063438074365891 -0.031353255907709494 1.1287230195101401 203 139 93 1.7865075496898346 18 257 59 374 3 321 1 193 60 429
4775 -0.56794471917585998 -0.25681839957382196 1.4747025270413692 71 32 17 1.5234548492797781 76 1174 63 1151 61 380
25527 -0.11997522694554648 -0.0010570688731807202 1.1619820519130415 198 131 89 1.4447559461113955 18 220 59 330 3 295 60 406 4 328
4774 -0.62553925624057127 -0.24258659608056193 1.8615766967797676 57 21 7 0.93770603596256852 77 2843 64 2177 42 347
25526 -0.13285634588538953 0.021003505544757241 1.269567396493839 175 91 54 0.16851456798815057 2 270 3 283
4773 -0.55843709525757534 0.1834791887878113 1.0263981320566633 135 88 60 0.12250897911798331 76 1742 63 1149
35799 -0.76929205755400798 -0.12931231964681833 1.9774962352827561 84 31 15 1.1137021682436976 10 143 11 245
15046 -0.1806740067821474 1.2085403965367714 2.9363903649993897 148 126 113 2.7009878533094005 38 1149 41 763 73 587 28 387 44 471
4766 -1.5138193223112149 1.1789828279336545 2.9362955462104772 217 188 151 1.3535585866600179 63 1109 38 1380
4559 -0.68797385103215136 0.13473744304985433 1.4157322561494969 86 66 65 1.9297609854108408 76 133 63 47 61 82 67 147
25312 -0.16907651857972916 0.10797319230017506 1.7333601273077091 133 59 22 1.0051349362290209 3 999 32 520 4 660 6 690
15039 0.45121334864127743 -1.482700401385296 3.0658625750567738 196 158 111 0.28979910926084868 70 18 73 575
35792 -0.77441318282246829 -0.19722753165067727 1.203069498244477 157 102 61 1.6470706466603542 28 262 51 192 13 895
4763 -1.7383027389271741 0.52862784439892085 2.930216431049844 189 155 118 1.4135972278559339 81 2159 63 1093 61 1119 71 1406 40 1235
14829 0.73162803363917428 -0.19585058397820457 2.9817503592481289 0 0 0 1.2866388304696259 42 17 70 74
35582 -0.80385487869578887 -0.14906939127267799 1.5517324054363431 0 0 0 0.056897871279007209 24 1030 25 862
15036 0.7041815820686832 -1.3617508843718764 3.061312093847794 217 185 136 1.5050173198195038 69 492 73 569
35789 -0.77045091867739668 -0.20665925865040055 1.5597587605925378 188 144 107 0.25997644727773978 26 820 51 172
4759 -1.8705160520367656 1.0067037664428837 2.9580355134659682 0 0 0 1.6519453163574003 77 2280 78 1166
4552 -0.73980940039539778 -0.20687931028461787 1.0065736396484086 225 194 150 2.0928883531547591 62 1427 76 28 73 450
25305 -0.19945265515625049 0.1298773561482354 1.0946742979061042 167 97 48 1.6963280218651975 59 916 5 1114
25506 -0.22589157126082826 0.15537577815578024 1.5943739324689969 163 108 70 1.6630489700860835 3 628 32 1853 21 1296 23 1228 47 211 4 623 6 653 45 401 5 793 8 776 19 290
4753 0.5445962180508922 0.23784982920767628 2.9187373962527534 218 189 149 2.3905129014115243 62 1592 63 1065 32 1887
25504 -0.1269472629211168 0.024998183108261865 1.3402244830997552 115 56 35 1.8576213093394067 59 991 32 1445 18 986 2 1047 3 1031 1 843 47 933 60 1000 4 718 46 779 21 1088 6 727
4751 0.14461042886667505 0.7736368612649005 2.9275419813791679 187 149 110 1.9065470528111066 78 824 63 1034 44 549 43 883
25503 -0.3775525303994956 -0.5867708672722064 1.2868598439321428 184 198 211 2.823118575745085 19 2518 3 2579
4750 0.13912033814006095 0.79432962472739754 2.926503444993759 209 174 134 0.79458899945241779 64 1679 63 1033 34 1307 33 1033 44 542
25498 -0.097409178330398388 -0.070540373364378364 1.2689101250119053 110 41 15 1.5451255246497999 2 2447 3 2552 58 3343
4745 0.023138693608373642 -0.29255472181970976 2.937000278565042 172 146 128 2.1021753997411179 80 198 81 887 63 1014 71 626 42 684 72 675 40 358
4742 -0.12193668433388719 -0.11892085506332932 0.99157737980496097 231 178 136 2.5009203821363029 76 854 63 998 61 534 65 427
15015 0.131957259421664 -0.63167583120538973 2.9546438778847985 0 0 0 1.6791404928512552 42 116 71 693 73 527
4737 -0.21959830784636267 0.17901056524215408 1.6145281401584626 44 26 24 2.8971503371129419 63 969 64 1640
15010 -0.26544371028263702 -0.45172097963231411 2.9209263133386747 184 142 92 2.2260543646377373 41 427 71 726 72 428 73 511
35763 -0.79355881135323769 -0.16719981167395259 1.146427947281911 151 91 57 1.3467029519094167 10 1466 53 1142
4736 -0.23257564373020001 0.13021279222660367 1.1443941123242609 175 134 109 0.49185380206985846 62 1776 76 1297 61 847
15009 -0.585319733631539 -0.34203276159692131 1.1760139083160936 233 175 127 0.95161065692189584 66 679 73 502
4733 -0.39932507822594332 0.15661192119830708 1.0028912092929696 218 166 126 1.2568172730104263 76 762 61 472 67 540
4730 -0.46795758284302907 0.20356526902439451 1.412431353098204 56 32 32 1.8942358158617922 77 1336 63 900 64 225
15001 -0.28327690596519528 -0.37007913271801218 1.2358073700584888 123 58 38 1.4669011727457111 71 1356 73 479 72 1084
35754 -0.7655217840309313 -0.1740674420265437 1.9810205247585813 110 51 24 2.5232510571011808 10 1107 51 1315
4727 -0.46073432840474143 0.18060062926820677 1.1335787095149286 44 32 32 2.5841038561464185 76 1235 63 896
4520 -0.26569539385560381 1.4000971272385021 2.9656503013240498 154 131 103 2.5671229928801771 74 2015 78 1734 80 3071 81 2620 79 2560 62 2408 76 2230 75 1513 61 1556
25273 -0.11658121501328363 -0.19168800980156764 1.8322088505495973 0 0 0 1.1090421989996917 32 770 59 1521
4726 -0.44478119778977532 -0.34044470911331176 1.3647182493791112 162 131 107 1.0443279878738152 76 158 63 893 61 406 67 72
4723 -0.56225423867111823 0.2277866777196299 1.6961891386178418 123 79 50 1.2297836073100341 76 725 63 885 61 448 67 531
4722 -0.45570003281698951 -0.3127454054036351 1.0749193494246783 184 122 81 2.0562947761879502 76 657 77 1374 63 883 61 391 67 394 65 31 66 55
35748 -0.78672064821960197 -0.0051330778482763621 1.5555543479709375 189 156 142 1.8329260577465167 10 803 11 689 24 1568
14995 -0.27680740539166859 -0.36517430473248641 1.1914676779411675 195 163 125 0.4192105138544 71 1123 73 472 72 692
25464 -0.10585314571737547 -0.033432052531788631 1.9199761556842281 142 57 28 0.8983441862705619 59 2725 3 2028
4711 -1.5319895240113377 1.0440152135851213 2.939382821459811 188 154 116 1.5918258467034674 63 761 71 644
14984 -0.20743208535211249 -0.31885934194273863 1.2402716434354666 154 96 59 2.1570265185128572 71 192 74 312 73 448
4504 -0.13210974947119344 -0.23064559420982256 1.190324363008362 114 56 40 2.5008971786801624 62 3090 75 2257
25257 -0.10371083009517514 -0.066867770018613923 1.2954223439496684 125 50 28 0.97838671014097878 59 1466 3 792 4 779 15 923
14777 -0.22640048527709877 -0.030996071734230992 1.2821305743339468 0 0 0 0.16134136925255654 65 162 66 798
35530 -0.67415605034808102 0.065346638195936904 2.1498452379837931 68 31 15 2.7439046211202527 7 716 24 224 51 1199 10 848
25460 -0.22380575862344881 0.12366872042678953 2.1665865119939385 130 66 20 1.4401475652494475 2 1601 3 2005 4 2176
4707 -1.5615087691598206 -0.61453714474627075 2.9105381157456343 0 0 0 2.5639395114550263 74 1309 75 1049
35733 -0.71563120323582041 0.3314484547705141 1.9988090147870712 179 99 66 3.5159400848970348 7 331 10 554
14980 -0.17155999440521791 -0.29717261574917869 1.7099749718880795 174 119 83 1.9984232916288627 71 642 73 443
4706 -1.6615224250861937 0.9638260665442 2.9086111701593906 0 0 0 1.1572215071323781 74 1043 79 1513 80 2046
14979 -0.18911230028861331 -0.30367964919675094 1.2147260239333266 144 91 57 0.10232733765618582 74 308 73 442
35732 -0.50376308233993838 0.25978615238768549 1.9788621926005512 177 124 82 2.2823412274827248 50 246 10 545
4705 -1.6887888803325748 1.088023295878519 2.9548545010506451 212 180 141 3.3309674746136118 77 1840 63 744
4702 -1.7580187062353021 0.18694503614343497 2.9243117612445566 203 160 115 2.409799058703189 74 562 75 307 34 178 36 768 72 825 73 425
35727 -0.78436643793207783 -0.031834950096045291 1.8339009881208486 99 53 17 1.6562052269449012 48 705 51 874 11 668 52 725 12 586 10 224
14974 0.42911558673818512 -0.36054549271114239 2.9611703416432889 0 0 0 2.5980430512470418 42 55 44 408
14971 -0.64123123896073486 -0.17256341577558287 1.002404268079359 0 0 0 0.19358692112604875 65 385 67 384
35724 0.55822099796780011 -0.7929391190946985 2.0345087677343696 91 37 13 0.31166815359860001 25 101 10 116
4697 -0.1382054815112449 0.10532715757967806 1.467908046712304 100 54 47 1.0991569984938474 76 899 63 655
4696 -0.12337608090260201 -0.10717083476621989 0.9929278666409056 234 191 149 0.52419781977075997 64 1165 61 243
4692 -0.25864426919665529 0.1686804359972344 1.1716641277855548 119 106 113 1.0083727526562514 77 1431 63 615
4689 -0.32330210899050549 0.22174263109968576 2.1459249691456361 170 118 68 1.5524118805270857 64 340 63 606
