# 3D point list with one line of data per point:
#   POINT3D_ID, X, Y, Z, R, G, B, ERROR, TRACK[] as (IMAGE_ID, POINT2D_IDX)
# Number of points: 420, mean track length: 2.6530612244897958
4715 -0.95990278694054954 -1.0072734891983515 1.3442373067113471 63 56 38 0.077737784622444378 5 1894 3 1710
4313 -1.1046751100832755 -1.2151367361242857 1.5251295318353859 15 14 9 1.3733799503771789 5 1295 52 1196
6531 0.2027121755313202 -1.1844644249457508 0.43579867811431788 28 29 24 2.0598020153229557 22 247 30 224
7329 -0.25626410395055033 -0.69460274718806136 1.813459977415389 143 105 69 0.11887858714331187 31 1377 26 204
4972 -0.1286814350725885 -0.87559236979252086 1.7950396796030912 129 103 76 2.0788507645738385 21 822 34 1031 24 1754
5994 -0.88336687249283197 0.54567630991245852 1.9514277676552731 139 135 135 1.5378144165217011 44 744 4 605
4006 -0.68681453900452938 -0.67047738856762862 1.2700924615514904 16 16 6 0.27685894985378634 5 1724 52 1811
7333 0.62209196962218605 0.26484041475086989 2.5401763608275045 164 164 164 2.4014500986104119 31 347 26 243
4976 -0.45258759521055325 0.26049141469850534 1.8789992978943229 107 108 102 1.4222118481281389 19 1284 15 1052 32 550 29 153
4859 -1.7668219033614245 0.63931875175823716 2.2420751465530762 160 159 155 1.4659253160122503 20 2218 22 1711 18 808
2502 -0.48338689050425371 0.3292796281546877 1.9013898231792279 123 122 118 0.71096543406601087 20 382 21 227
7077 0.69175833491761551 0.35260885788919671 2.2920814308979995 141 140 136 1.0447993904202937 34 1734 24 1533
5995 -1.533428385532029 -0.13728826316588699 2.2157461217488552 123 117 119 0.74211593209670534 45 1013 4 611 50 1174
4007 -0.68958751838364751 -0.67176625631617692 1.306534492945659 111 77 52 0.41371876011910524 5 1725 52 1814
5684 -0.17315633099031807 -0.91131060556690058 1.758033901471979 80 64 48 2.1660459725944539 17 2692 29 1069 31 3468 32 1434 26 1326 15 2209 21 1649
6793 0.38752417738765543 0.89370195102922678 1.9783714836340693 130 131 126 1.1943466813300452 32 635 29 490 31 1749
4011 -0.015026896078773696 0.55084271549981045 2.0925098297712021 175 173 174 0.91740915182973826 51 2108 5 1766 2 1815
7338 0.61073679182806406 0.30275862874868664 2.6065813204035795 126 124 127 2.1902975614637086 31 2500 26 468
6256 -1.0078923240207909 -1.3041574477156757 1.3601323366485616 80 77 68 0.91200761484764747 5 2038 1 1214
3899 -1.0306481392863902 -1.3417884924972037 1.3028968669580601 83 84 76 1.0212216915267998 52 29 2 748
4866 -8.6833307489168501 -2.8892923827651686 6.8255009702005065 193 198 194 1.7473971846563758 25 1556 22 1863
7223 -11.3740023853615 1.3338049514687944 -2.216041417105437 243 245 240 1.6314502433438018 24 2345 31 3561
7084 -0.2278362753913436 -1.228843062482567 1.4901752223621108 61 57 46 1.1002551252465369 34 1914 24 1718
13 -0.82131342632127857 -0.9453036015796854 1.3637632565024562 73 51 28 2.0167626561135577 14 537 8 477 50 360
7341 0.53667025501732057 0.53110118588115462 2.8690384277912608 110 111 113 1.7429928773368122 31 1685 26 542
4984 0.18116819750942448 1.0213260793945167 1.8574871995366999 110 109 105 1.1582051247778886 21 491 15 1244
6259 -0.93407674450692024 -0.91215140719940146 1.4122858144354311 134 100 61 1.8287191414057875 44 2175 11 1844 49 1432 9 2573 51 2132 5 1898 3 1597 52 1903 1 1004 23 1183
5124 -0.025431735582229928 0.90688392260566153 2.0167434895709242 51 50 46 0.89226303450816413 2 447 45 422
6260 -1.1212051872730953 -0.98341831357241305 1.644223795443603 50 40 30 2.4845945580433337 49 194 52 770 1 345
4018 -0.6906616984761883 -0.63228694848009437 1.3120078909468802 32 32 24 0.56468099511192649 5 1824 52 1911
7345 0.97839198582474696 1.1747743157661246 2.5461316917704697 167 166 162 2.1983310700067316 31 2818 26 609
4988 -2.3471154067089293 1.169096559731015 2.4920682924508202 94 93 89 0.42315281503770785 25 596 15 1340
6263 -1.1313461019962558 -1.310403217483169 1.530864439289086 18 18 10 2.455308501766031 5 1549 1 791
3906 -0.72249729392806661 -1.0010092523394736 1.274536142397539 117 96 67 0.89646824468234265 5 852 52 146
4020 0.2013181885218677 -0.46995063673615478 1.6425669915842946 104 94 82 1.6259803197159812 9 1544 5 1828
7347 0.92834556192995576 1.1213368572684725 2.6371126815460482 129 127 128 0.73631211470384139 31 3315 26 614
6806 -0.23766541618978587 -0.55507986026224765 1.8396578395425587 134 111 70 0.50010785606963792 17 1431 29 642
7349 0.60919463080332636 0.93468118660463095 2.8994486345055885 117 118 113 2.0034062302462963 31 1950 26 640
7350 0.64766273615131731 1.1325838837815549 2.8542193951957611 144 142 143 1.5044308693674597 31 2072 26 662
6242 -0.86708072840811157 -0.97870867955164953 1.3022061242680243 108 89 57 0.73182601686832838 51 2047 1 1074
7351 -0.2572257889003296 -1.2247625869294934 1.5145911185327816 58 49 42 0.66542527814172026 29 1058 26 805
4051 -1.3803617610395122 -0.058228058207046497 2.2096687690762433 0 0 0 1.4436174622001627 50 553 51 453
4909 -0.86084987973015403 0.55916589034478326 1.9809983506688509 17 16 12 0.80063257713888125 20 2627 22 2693
195 0.098142287413229626 0.77149442861122453 2.0011654224408661 125 124 120 0.35934908759139844 14 1623 8 1216
6018 -1.0889033603331257 -1.0169814053565023 1.5890608301098941 128 97 61 0.26340309412853458 44 1917 4 1090
7357 0.90297015560729899 0.996059557099089 2.5633582197754254 168 167 167 0.08548537277460326 31 3271 26 920
5000 -10.64756199408543 -6.7686406121766503 5.0563436720214856 116 114 115 0.028068192425025701 25 1448 15 1607
4034 -0.76317197423656236 -0.70475325463252769 1.3116150299759934 170 122 86 1.5255053369118305 50 2441 51 2184 5 1964 52 2019 2 1978
6391 0.74813462869422875 0.5112586593015056 2.3085909496146408 113 108 104 0.67258416574169411 34 1784 24 2009 31 1553
6252 -1.0331967861501212 -1.1121594143114504 1.4772440449679245 51 49 40 0.37399012001275472 49 1667 51 2246 1 1174
7361 0.94812877760854564 1.1738215110935206 2.6463302228511325 154 154 154 0.67334259916488248 31 3331 26 991
5738 -17.844872806109645 -14.826811264485304 4.8155707019606862 197 201 199 1.3649558633710503 15 2184 17 3206
4040 -0.11799522995867748 -0.79292602301859993 1.1909498103361409 14 13 9 1.9604557924684529 9 1490 5 2043
7367 -0.17713573243681968 -0.97832078353871588 1.7257455500751182 82 67 60 1.2260071828973331 29 1317 31 3807 26 1460 32 1608
5744 -18.97155633383349 -16.448804109460873 11.395475492045062 0 0 0 1.8020795643515215 19 1262 21 818
5747 -0.57052005823558016 1.2853836019383589 1.8083741459279277 130 130 130 1.1097658396169252 15 1807 17 655
6289 -0.48772558479911204 -0.63640655073960684 1.4254669214218219 71 53 33 1.8834106747626946 15 226 34 226
5748 -2.0474472811568605 0.8924700220414038 2.303055548794692 0 0 0 1.5070332262285426 15 1252 21 591
7657 -0.89107180241278794 -0.077769521180625467 3.1328615190172737 153 148 145 0.58120813533735249 40 2486 42 1989
586 -0.073652544046216073 0.49605917182815346 2.0297909886469383 161 161 156 0.95053778561536895 14 4362 8 2447
7374 0.94410949574380842 1.1661986238157656 2.660535684594266 131 132 127 2.0455686939967044 31 3329 26 1223
6267 -1.2347903274402534 -1.0926991159293866 1.8795285674183964 26 22 23 1.8253671891473808 51 1963 1 916
7376 -0.15858058040881631 -0.81914549696663141 2.0337069369413117 177 132 90 1.0138041472261126 29 1381 26 1466
6268 -1.0288805828772791 0.46062781129034552 1.8156164185246126 147 145 146 0.54301970380110376 5 1875 1 974
7377 -0.053830375334553315 -1.0497197647731069 2.0326344368879492 162 117 84 3.1438779791934119 29 1492 26 1679
5754 -0.68721064902150608 1.6588640170720861 1.756906062535468 126 125 120 0.50129230021742066 15 1881 17 1938
1040 -0.41459250603163345 0.12748970722885711 1.9168066954863483 154 145 138 1.3242304883326297 14 854 9 1596
7045 -0.13614098936180671 -1.3394135630129675 1.5696653124076745 24 24 14 1.4718806422522288 27 1135 34 948 24 1110
6504 -11.974367086486023 -2.030817981251658 0.58681130934880577 67 64 47 1.9127124911456219 34 2148 29 1179
7559 -0.40367676157961685 -0.35847300077916561 2.6438738809903808 138 134 135 0.97252712108016015 40 2446 36 2161 39 1845
4836 -0.051198207522540576 0.10283804586920205 2.1221574461242789 98 93 97 2.7159195451817197 25 1171 30 423
7054 1.270553700549041 -0.61665160385432338 1.6650695518449208 155 151 140 1.6163831449218422 34 240 24 1212
5972 -1.1569967538888648 -0.75219218014432232 1.8857442175523458 121 83 47 0.25194986729305702 44 2266 11 2106
7568 -0.51775207386571687 -0.24169923947626321 2.8624041254759982 105 101 102 1.001069665271616 40 1829 36 2226 39 1293
7578 0.0070531711765005967 -0.17826692103024819 2.7196114945311263 136 131 135 0.75376357045608922 40 2558 36 2299 42 1960 39 2253
134 -1.1310860053943379 0.47202686026974988 1.9592082169724574 151 151 151 0.12624046268230818 14 1244 12 1338
5221 -1.2077271042704543 -0.83329138411158532 1.9232067687901511 96 54 29 0.012210313446691563 51 1831 45 1786
4846 -0.71816857585727412 0.82530581168087958 1.9288234798948167 133 134 129 0.39873504559185291 25 1294 34 529
132 0.240909367125516 0.50156236937633725 2.0166537281319017 128 133 127 0.70240834489780413 14 1229 8 924
2489 -11.267740546735096 -0.89715279843031481 14.462975676644644 106 76 40 1.0764639128587943 20 1624 25 319
5955 -1.9846715739294449 0.066747495534312765 2.1423894204465239 139 135 136 1.6704792921395495 44 1419 11 1225
1241 -0.37240066125620025 0.93945166594906815 1.8965688836482018 167 177 169 0.028141049306893241 14 1985 10 1200
3598 -0.74881438237915943 0.76561507917701155 1.9021374701004197 132 131 126 0.8252753191662201 21 382 19 368
4378 -0.02175577604454268 0.93020282456436454 2.0057555513066805 74 78 80 0.099091888392117938 50 1265 2 457
6735 -6.7896405469499843 -1.7573596901224777 1.0332673491822399 254 253 250 2.3005744404365913 34 2308 30 1578
6596 0.3138746630293478 -0.035177945698913651 2.4884174189635968 108 102 104 1.1785756140200185 34 1641 27 2093 30 1078
7705 -0.64245626016285451 0.10391726850147998 3.1265914517943574 141 137 134 0.25282650056765066 42 1375 39 804
634 -0.6009568623765591 -0.57657084174760609 1.2900725068256662 32 30 17 0.2285366069247996 14 4825 8 3437
6082 -1.0679685677394022 -1.3717647769142842 1.3793423490022891 30 25 22 0.14777172180633641 11 1323 4 1527
4019 -1.1167036895198055 -0.82325328748094451 1.883827583636053 59 32 21 1.7324611799814902 9 2320 5 1825 44 2307 11 2168 4 2586 45 1910
7346 0.98158599259831003 1.1850880579451497 2.5409900610542886 135 135 135 2.468629261545745 31 3324 26 612
4046 -0.96176528857451005 -1.2990367032530359 1.3129020012194175 31 27 16 0.81816331534750519 5 157 49 99 44 181
7373 0.69147226482667146 0.99276406787887894 2.818962387176517 114 112 113 2.1116744812108097 31 2768 26 999
6264 -1.2092946927028496 -0.95545144273936167 2.0499429977979595 0 0 0 2.5066975284630733 3 1460 52 1694
3907 -0.86312778690432101 -0.9753432523102078 1.3315645274532404 61 39 22 1.0008984453054757 9 264 51 903 5 860
7603 -0.50181715128129356 -0.34711175308700892 2.735455302648123 99 93 93 2.3555606200572581 40 3285 36 2968 39 2632
5980 -1.1165810865422101 -1.2965025901030414 1.4955364091192636 25 25 17 1.918248593867248 11 877 44 1053 4 228
6498 0.13181310160255591 0.12959403626057678 2.1767315166114782 0 0 0 1.7772297728775288 22 1726 25 2025
7553 -0.031466973373912431 -0.17753521937992708 2.7374887713969667 96 92 93 0.96925068433182604 40 1028 36 1855 39 614
7039 0.7285527533473436 0.4380479969218472 2.4093758390585358 134 135 130 1.5174362121522924 34 653 24 882 31 427
5930 -0.72531449553571348 -1.5346389615915605 1.2370565238100226 174 174 164 1.8258099754437862 44 2284 11 2069
4285 -0.85183878809897406 0.42011005136993929 1.8995520215845938 149 151 137 2.54716581097665 51 2238 3 1887 8 3938 52 2066 50 2458
7612 -0.30106822881255202 -0.30445451946063284 2.640003209501177 85 78 85 0.68962632746116304 40 3244 36 2929 27 2524
4412 0.43930371521775607 0.46147466589241309 2.2551660167841767 0 0 0 1.4685287782024283 50 2051 51 1681
7739 -0.7576955459658461 0.13465997028708895 3.246272231252997 94 90 87 0.1074007640791238 40 2009 39 2051
3025 -1.4376728711910367 0.46979444764945705 2.1277018573713486 174 175 170 0.48426714112894825 10 476 13 443
7485 -0.16046984892096899 -0.2676833010926416 2.6293999776593262 93 87 91 0.43664497943662894 40 1875 36 839 39 466
6944 0.62336773087827502 0.28806663947390532 2.1930891820493446 120 118 121 1.0255137531743299 34 516 27 939 24 658
5352 -1.0958936854779431 -1.2049400768201477 1.4776764046337545 36 33 22 0.1827695691836719 45 1483 44 1598
7709 -0.43023462215128727 -0.80265207670442862 0.60096322379999179 84 80 77 1.2535009343278798 34 1531 39 1123
7570 -0.051612295198220887 -0.23258784730317505 2.5561454059387287 91 80 84 1.0461268627314191 40 2841 36 2232 42 1910 39 1876 27 2053
4838 -0.42812466593761445 0.18761494451475622 1.8587013015213039 0 0 0 0.50508817511299775 10 1472 21 1688
5947 -1.2880924634874171 -0.31150111372481143 2.4055887189130565 125 121 122 0.36527895529412902 11 316 4 486
4302 0.49175148630886889 0.48079341611121929 2.3396625710289958 168 164 161 1.2235560490304431 51 1878 52 447
7629 -6.2776239066513133 -0.0067068430324707775 -0.83393499948068628 104 98 85 0.4260178384914895 40 1373 42 1009
6006 -1.7420737458836204 -0.14801147471750073 2.3655772372225448 92 86 88 1.5726317322586592 11 466 4 776
4246 -0.66879814161145146 0.39567903607972443 2.2907413155590284 152 148 145 0.12788466935154263 9 1231 52 1608
7573 -1.0103360780139174 -0.03998692697141442 3.2298388575043382 95 89 91 1.4134543311369971 40 1869 42 1321 39 1430 36 2269
7059 0.072022761596335527 -0.1821569751167158 2.5043101183128775 153 151 156 0.76365833910023595 27 1701 24 1281 40 2521 36 1766 39 1891
5950 -1.1043379840042218 -1.1579274642466142 1.5264577810249793 26 26 18 1.4486786644540681 44 1611 11 917 49 855
4305 0.28383503646225061 0.76135424942395236 2.1562838878557193 78 77 73 1.8612641101405685 51 1171 52 573
6662 -6.8368683960235517 -1.8030120025516365 0.81126662311408537 18 17 15 2.1334298652422361 34 2138 30 1824
7632 -0.38545293530587121 -0.27886796640494976 2.77613552435594 153 149 146 0.54777175970899272 36 1716 42 1219 39 472
561 -0.74363220120150486 -0.083018244218071024 1.8234768857507031 167 134 81 2.3139815982548182 14 4284 8 3147
4309 0.70097161825092547 0.42102800311617306 2.4554622790278957 109 105 102 1.094153643957378 51 1424 52 985
7636 -1.0536366850463417 -0.17790460420283422 3.0958609358854123 159 155 156 1.3361303843535743 36 1698 42 1257 39 1308
7125 -0.35068731648737916 -0.95332061597835382 1.43708453042526 103 81 59 0.29805420396526661 34 2530 24 2487
54 -0.003893522389753335 0.19143341835659125 2.197853927910546 165 165 161 0.08205005266435772 14 834 8 722
4075 -0.98983029177092996 -1.3136917205585485 1.3322209153932305 37 37 27 1.1337049783596838 5 1275 52 1151
7402 -0.098060348650533063 -0.2517935565278171 2.5391064493237954 94 86 93 0.63037436513037393 27 468 40 1873 36 1705 39 455
4332 -1.1256509325858515 -1.0629552276605143 1.8823459813079406 19 19 11 0.9126358072936922 51 2134 52 1975
7659 -0.96594264756664627 -0.025692387990484754 3.2230032448664567 147 143 144 1.4330082013450134 40 2495 42 2010 39 1970
588 -0.23002209953153743 0.49936177279791005 2.0032852814396369 168 170 165 1.3636161086339076 8 2876 12 1904 9 1973 14 4367 20 1703 22 1250 25 1717
2945 -15.936447447252565 -6.7890587829828055 13.039212290787477 26 27 22 0.82065495095745444 20 2579 19 3086
4359 -1.1839377446195536 -0.31496299273898937 2.0629955050965645 70 51 34 2.8661617989338333 5 340 44 1958 49 917
6577 0.18698191410400863 -1.2601437751480413 0.39199634965937485 137 134 126 0.66179033738732829 22 1018 30 858
7718 0.24325612059598992 -0.07746006335192275 2.6028609322582796 93 87 89 1.3097560231386791 27 595 40 2111 39 1458
3004 -0.71821860741222077 -0.25923480247379677 1.7418413071020704 146 117 85 1.1427600239850175 10 336 13 226
7615 -1.0092378075298165 -2.5167776446721164 1.1650157147663434 97 94 85 1.6006344457420258 36 1173 42 66
4315 -1.1416012923479717 -0.80141965411860594 1.889982982397703 0 0 0 2.759649590359011 5 1590 51 1632
4883 -1.1303878214012857 0.49349614090306665 2.0836177126834592 145 143 144 0.95663391927236141 25 2046 22 2209
2526 -0.23801516782812504 1.0167647416429544 1.8859531530855054 172 168 165 1.058905599387427 20 1476 21 519
5992 -1.5490494559954622 -0.20691237047498928 2.323469157247346 107 98 103 0.93990997926159314 11 1048 45 476 4 602
7476 -0.41151212334261617 -0.34882867405860662 2.6535830487456598 102 98 99 1.0312899121640111 40 1786 36 673 42 1877 39 1230
4406 -1.0731650459717343 -1.0197614375390081 1.6399277056060932 99 93 77 1.915196747239845 50 1048 2 839 45 291
5515 -0.71838081318087343 0.59837427472997196 1.8711920778962199 0 0 0 1.7772822271182895 20 2225 22 1751
801 -1.0765803905731817 0.40372839116330228 1.9803898012836507 151 152 147 2.4098150763772015 8 1962 14 2861 12 1298 50 1300
7733 0.10758315249256921 -0.060577629141776196 2.8385774850144965 104 100 97 0.59188851118019903 40 2637 42 2037 39 2016
4433 -0.18205703738709486 0.90757827045982775 2.0074752504778388 150 152 151 0.75227792389023396 50 1664 2 993 45 459
6651 -0.15606995358553483 -0.76895119869416018 1.9377393111130676 0 0 0 1.468561609200246 22 1978 25 2175 34 1942
6081 -1.1814773004722356 -0.33158621503019026 2.5110974591255992 139 134 138 0.48600433013310029 11 310 4 1195
7587 -0.59406001673603914 -0.097165738157590623 3.0005236956629147 137 133 130 0.74341143890242989 40 2506 36 2556 42 2720
143 -1.132268271921155 0.49614479742768319 1.9529692743194251 163 164 159 1.1386801514277809 14 1299 8 2024
5230 -1.1285907642178943 -0.93139695917819043 1.7747412685564961 124 91 59 1.7877903843693115 45 1909 11 2162 49 1577
7560 -0.47791945975926886 -0.33835040317388937 2.7524743166004058 123 118 122 0.88206329847065124 40 2454 36 2178 39 1853
7046 -0.13734817181714029 -1.3396948505040054 1.5704085320396326 24 24 14 1.7274493971982108 34 949 24 1111
5937 -1.1850427472058223 -1.0100758527961462 1.7828747277802546 22 22 12 0.95132192264529825 44 2298 11 2161
4856 -0.47083234684517844 -0.15405266376300056 1.9479961364721208 164 125 74 1.2985694837825397 14 4268 25 1996 22 1679
142 -1.132268271921155 0.49614479742768319 1.9529692743194251 163 164 159 1.1386801514277809 14 1298 8 2023
5965 -1.9635973693993791 0.080913927542478323 2.1019674030233375 120 116 113 3.2703547792666559 44 1792 11 1551
7561 -0.97958178611860791 -0.2041486672778805 3.0233403091418078 100 95 99 0.36442716703947581 40 1784 36 2196 39 1290
7047 -0.20950308073838156 -1.2915235673589252 1.4543244260780412 41 40 35 0.3307981950594242 30 865 24 1119
5938 -1.1282547726636099 -0.82336580461748832 1.8826560786819413 45 26 19 1.1626003084552985 44 2306 11 2167 49 1581
4107 -0.43434079986436969 -1.2352393062752569 1.2269919578072215 62 61 51 0.28903675497809189 9 876 52 99
7434 0.18955428159158194 -0.10609214743587631 2.4355560013018036 132 126 130 1.3387881784193396 27 1316 40 2557 36 2266 42 1259 39 1925
5077 -0.0028785491090769868 0.8670397434358369 1.9037813559897794 37 35 34 1.8836287103381488 21 1464 15 1738 14 3270 20 1822 25 1821 17 1614 19 1360
7038 0.65649786161874113 0.29919307251617183 2.2889059995320822 155 154 150 2.1023207733265195 34 548 31 316
6497 -0.4773655777346385 -0.57652391923574453 1.4016215057309969 37 30 20 0.68804000057498604 22 1641 30 301
7552 -0.33912398244216735 -0.15150865372271208 2.9253227162093882 94 90 87 0.63200347204523644 40 938 36 1852 42 1293
6470 -11.800867703300831 -1.552788357703111 0.81626120612263564 26 25 20 1.4096923180142107 32 1724 34 2627
4278 -0.74729556243132789 -0.84362981438482254 1.3594425848784404 143 101 63 0.47093997492895989 51 2247 52 2018
7605 -1.3429956428056418 -0.11558877475588637 3.1735746109317184 116 110 112 1.5495969836139583 40 3132 36 2973 39 560
5982 -1.7074681029239624 -1.3861966212780716 1.507871789869152 57 54 49 3.8242523651344258 44 2240 4 313
7150 0.69162623419820024 0.39788040889725146 2.2461142185381622 101 100 96 0.036262317245673525 34 1738 24 1961
7664 -0.14615887082999321 -0.087323411486619318 2.9347357496919573 184 183 179 0.49333337320412679 40 1125 42 2019 39 1488
593 -0.43106485795404664 0.61239906515983888 1.9663074709838799 165 166 161 1.3158069830727419 14 4386 8 2903 7 1886
7280 -1.1926465633437771 -1.0755329356721337 1.8282422077775364 28 32 31 1.3131466367219766 49 1430 23 884
4923 0.014023625241759201 0.9926740745036241 1.8686158717271981 140 136 135 1.1964609393794861 25 1849 22 1361
4935 -0.38986626575427619 -1.0308388577759648 1.437476587457146 90 75 54 1.2840300448303645 21 114 15 171 32 129 29 73
6071 -1.3947701913105122 -0.20506767082747529 2.6858603741661704 103 98 104 2.2441264063856448 11 406 4 589
7474 -0.46188311039515301 -0.37440186568916423 2.66528064805552 134 129 130 1.1154493420597895 40 677 36 655 39 398
6933 0.3925801571972472 0.0063175766695043887 2.3859774925726565 94 91 98 1.162569095990263 34 377 27 669 24 446 40 1271
5330 -1.6944111515707485 -0.13412113726807312 2.27973803020034 163 158 162 1.4321067886052234 45 1051 44 1308 11 1099 4 1327
7548 0.10045101599003195 -0.16013065277823219 2.6043462461881761 129 124 126 0.15968224065139366 40 2561 36 1837 39 1357
4451 -1.3036096547777793 0.65219926164705788 1.906496486142589 145 147 146 1.394427319066035 14 3904 2 1083
7778 0.48059952226738495 0.045961365321089361 2.3993348514462585 141 137 138 2.8120739607037502 42 2009 39 2009
707 -0.663053116470814 -0.72821348666222974 1.2137007882529296 172 124 75 1.2106869269103315 14 5222 8 3911
3937 0.28206952587972928 0.53352159995508053 2.1800380899341509 137 135 136 1.3910880455274659 50 1139 51 1454 5 1035 3 842
6155 -1.1000677671086501 -0.939098885700974 1.9465909802026242 79 44 25 0.5787820516830966 49 1516 23 1369
3798 -1.1349267570921153 0.94605521364068579 1.9274496940880952 125 122 117 0.6722146870441299 21 1091 19 543
4197 -0.8118267493976038 -0.94218725739181397 1.3577469445943668 27 20 10 1.6913209257842035 9 1824 52 1207 3 641
7524 -0.1776261521903014 -0.2795217762445541 2.5646533735564847 92 86 90 0.60406584610438452 40 2475 36 1692 39 432
5167 -1.7626913184001838 -0.13131788203517242 2.3230310661434821 146 137 142 1.5021036934724799 2 443 45 1064 11 1117 4 800
5901 -1.9380432881941896 -0.019103650845568535 2.2645987955381783 112 108 109 1.7017387404350734 44 1378 11 1523
7727 -0.41663575178502049 -0.37398990099938745 2.6330172325159644 108 107 103 1.1455934993587569 36 1638 39 1841
656 -0.73158483816845521 -0.51476744537727359 1.3988229267523764 81 52 44 2.3324650878397173 14 5006 8 3847 50 2322 51 2190 2 1881 9 2649
3013 -0.32919853288851481 0.44922341288002748 2.0584705804560075 111 118 111 1.3984381139023343 10 600 13 350
6104 -0.71844863202438314 0.50810078993810581 1.8915292077599593 113 112 108 0.46295662483257416 44 1353 49 389
7473 -0.46488691386041575 -0.38081173373531396 2.6498158557189471 88 84 83 1.3627470431582633 40 667 36 651 39 391
4741 -1.0679220263792961 -1.0785135722296835 1.5294410291609817 38 38 33 0.99364156968959039 52 739 23 98
5850 -1.0774887574170546 -0.67011737794036963 1.9240726304088966 102 66 32 1.3600721743258335 44 461 11 286 49 243
4371 -0.066032146139006237 0.87266599577258219 2.0283068474917521 137 135 138 0.51818914930377002 50 707 2 444
7698 -0.58019894906840763 -0.26956308257555761 2.8489818501253383 100 96 93 0.11874316431230626 42 569 39 471
254 0.22028871833691036 0.054090305939310614 2.3329231212196397 172 172 172 0.64744895160471505 14 2588 9 494 8 1687
5341 -0.8439765291859519 0.74633519223106759 1.8276515114593359 0 0 0 1.0827631855692839 2 1043 45 588
7725 0.21830941086741951 -1.1473047341432179 1.2414132311046242 50 54 53 2.0357521080008736 36 2640 39 1767
6616 -8.6948716339032526 1.3622245992769471 1.6376532009358211 240 237 230 0.1096959471069216 34 1596 30 1312
4831 -0.0016306932891032039 -0.17841153728492426 2.352767106146429 0 0 0 0.48080986774658974 20 1617 25 1137
7049 -0.21620790532202275 -1.1271793641102166 1.538721065730895 44 35 28 0.98331922735912491 27 1169 24 1145
4692 -0.99542898672150537 -1.1300821575123112 1.4252156988442988 83 72 52 1.4756602057322292 52 1676 3 1432
4858 -0.32024677780488975 -0.10822366191012037 2.0808096495399382 101 73 43 2.2194473559913557 20 1618 22 1688
7076 0.6836908527679465 0.32011752777772406 2.4057752283005636 112 111 111 1.3935714708868141 34 1262 31 339
5967 -1.09654676908044 -1.3185406730868319 1.4942961864890825 27 24 15 1.8594307202167486 44 2058 11 1628
7563 -0.49835509822963325 -0.29347066738095429 2.7981082756848004 137 132 129 0.52441944013059782 40 1806 36 2202 42 1900 39 1265
4751 -1.1056146051775226 -1.0359635627259702 2.0062990249062453 147 101 72 2.1722835281332533 52 1230 3 1028
6969 -0.18719164608520031 -0.28191613230761797 2.5386176411243699 89 87 92 0.9080477800259702 27 1672 40 2827 36 2186
7226 -10.722501635769866 2.0112636768009868 -1.7033670233803879 71 71 63 1.2033190181282423 24 2507 31 3739
2512 -1.0201462552059095 0.7528286662532554 1.9917376352005933 170 167 162 0.54837537882693543 20 1282 25 551
7483 -1.0421164913606218 -0.16729549246792222 3.1034592356856892 132 128 129 0.83366902065033299 40 707 36 815 42 593 39 558
39 0.079616224395379437 0.12198239939889829 2.2586711236764558 144 144 146 0.096158737730052957 14 778 8 668
5126 -0.077405815556714205 0.90620063223074265 2.016287825836073 146 145 141 0.78349857401794132 2 980 50 1643 45 432
4159 -0.77587916901019927 -0.30888075172948487 1.4739384601174697 128 110 72 2.9723249271089145 9 452 52 841
7486 -0.10710008364364117 -0.25201838100540702 2.5889850628059792 96 90 94 0.74406073691308949 40 824 36 850 39 474
42 0.36654418423947788 0.14922237668922017 2.2779864886268602 187 185 186 0.67564553285062467 14 787 8 648
5129 -1.3710791460699214 -0.022520206825291232 2.144426195904841 115 111 112 1.229347739775132 5 417 45 487 44 588 11 398
5561 -0.90282042239823523 0.24395835349956976 2.1333681799405553 118 82 46 1.2606534389057291 20 2541 18 1033
3204 -0.88118266576416848 0.90510255778605719 1.8408608371989796 165 166 161 0.042497939854583999 10 2553 13 2758
7779 0.40181581462301702 0.016495027402594283 2.5497550857362721 0 0 0 1.9217202245625407 27 1387 42 2025
708 -1.4726434040139276 0.25810853160160274 2.0876210455984379 146 145 141 1.4464273205689877 8 3977 12 2594
6156 -0.82276055093581191 -0.53650121948136908 1.4810907832233524 122 100 73 0.18610061003767434 44 2097 49 1526
4424 -0.11358621154054964 0.87615524429925717 2.0279718029571834 59 58 63 0.22918593225984929 50 1258 2 977 45 431
5533 -0.42834052372395176 0.18904551342885462 1.8788540663265703 15 16 11 0.13751318389506328 14 4845 18 806
7751 -0.16283258561789493 -0.17785405316915334 2.8284281570260124 135 131 128 0.71766410485539189 40 3044 42 2711 39 2255
3037 -0.58396175728813415 0.84351073807023724 1.9079945397003517 147 152 150 1.263145798800634 10 965 13 626 7 568
4925 -0.23189207758253474 -1.2550236267908292 1.5185231536048194 43 43 35 1.6649621562603871 22 1937 18 620 30 1649
7143 0.077244846684836541 -0.17167962987859753 2.5779989088137913 145 143 148 1.0708278721928073 27 1288 40 1980 36 1026 24 361
2429 -0.97429520557307447 -0.9530970120531681 1.4347228050787233 88 61 34 1.7057470317115579 9 1010 51 1345 49 879 1 685 23 122
4798 -0.85683963946939212 0.87666141604471692 1.9097992953842267 143 142 138 0.47498052182140632 25 1296 15 1200
7155 0.7793475299423982 0.40800558648090623 2.499955389479835 143 141 142 1.8925142243136399 30 1167 24 2259
5907 -2.0074692302516928 0.024552387337751308 2.2828018622824962 131 126 128 2.0169755569782519 44 1417 11 1562
1193 -0.42923487579023156 0.39785379181189862 2.0497796552265002 166 173 166 0.52433786984102171 12 701 10 545
3550 -0.72450827604674928 0.47576557089105598 1.9286941952269747 146 106 73 0.4887299791559091 10 2150 7 3153
7016 -0.026478530282071807 -0.85286310410534183 2.0109857980769892 148 106 68 1.289822634970998 34 1554 24 279
3946 0.28472331507266346 0.77653612182615483 2.0905164715240261 107 107 107 0.6041631355234216 51 1182 5 1107
7273 -1.7520984146902245 0.35976179090485383 2.1934635042274833 149 149 149 0.273190366592579 49 1262 23 624
4928 -0.86094688105464579 0.68415510912974109 1.9155247254843646 0 0 0 0.36105752243531969 10 3125 20 2348
7146 -0.044641339215093334 -0.16514578852053421 2.3102298727740105 86 87 82 0.84954557888840765 27 1254 24 1265
4789 -0.030730230793346566 0.035069071030786471 2.2093475516150227 148 144 145 0.12403122363001934 25 1160 22 460
4955 -1.2765230786406025 0.91697262200452301 2.0097176780782444 127 126 121 2.2200762177165982 21 522 15 576
241 0.1484439867066753 -0.0078047593397892832 2.4140761737327514 159 159 159 0.63657058332127781 14 2564 8 604
2598 -1.9583056653106039 0.22798493525825714 2.3824846771241459 172 173 168 1.6447770036024292 20 2191 25 1651 18 653
6064 -1.0656395761493651 -1.3743564821164131 1.337924902844243 0 0 0 1.7451710790144754 44 1003 45 776
4333 0.041880809369545809 0.46508957910071935 2.1996243177693002 165 161 162 0.41691013326968962 51 2206 52 2002
6690 -6.6572940034295485 -2.2092431556525982 0.63512609822694788 254 254 254 1.7668976742100788 34 2526 30 2133
7660 -0.96594264756664627 -0.025692387990484754 3.2230032448664567 147 143 144 1.4330082013450134 40 2496 42 2011 39 1971
7403 -0.096138452883460471 -0.24149835268145847 2.6186786033291423 90 83 90 0.90301923661503347 27 473 40 1903 36 890 39 1288
7202 0.59094727421551252 0.84131073622425045 2.0934303052185497 144 144 144 1.143808457064301 32 1155 31 2605
131 -0.19599868359850267 0.49176480983866538 2.0169743116646219 137 142 136 1.0932142311132551 8 1006 12 768 14 1228
2488 -0.58473693760023759 -0.17244802485319463 1.8312735453327078 141 108 68 0.5017546604431814 20 1116 21 193
4389 -1.59159963454926 0.13552974158861422 2.0460772231630271 122 118 115 0.75008081692912576 50 1290 2 513
7716 0.091860135032555551 -0.15760730482589758 2.6381770643718738 137 133 130 1.0853661090908637 27 533 42 1271 39 1375
645 -1.6555929273173555 0.24556358205761644 2.0555517739273319 179 175 172 2.5863182155462479 14 4847 8 3480
7773 -0.22559731106281086 -0.86649392884516996 2.1356133992813375 31 28 23 2.6896052812630651 40 3319 39 2699
4319 -0.4427762858433531 0.75685938119409157 1.9033781483668732 135 135 127 1.451364942170057 2 1347 3 847
6676 0.15129717354104524 0.4033474071058723 2.051516754646284 133 132 128 0.17482537397495512 22 2368 27 2304
7646 -0.76372043947679424 0.03832695047462014 3.1606377381263688 146 142 139 1.2039091279335656 40 939 42 1356 39 1504
2932 -0.7783786584500626 -0.60846221781078114 1.4283897633420195 121 99 84 1.4300840219919055 10 3092 21 2187 7 3808 13 3235
7484 -0.21318554846129395 -0.28485754573989652 2.6570036080738553 89 83 87 1.0695070421253552 40 2481 36 817 39 1269
40 0.079616224395379437 0.12198239939889829 2.2586711236764558 144 144 146 0.096158737730052957 14 779 8 669
5127 -0.082085344170445024 0.92187720859503697 2.0170165766849162 63 59 57 0.4813355554710308 2 984 45 439
4752 -0.91807937317643196 -0.47213630254624173 1.5478245472701699 145 106 67 2.1777190969325715 5 1362 3 1039
5861 -1.6342146622399665 -0.13474414272432797 2.2402466139565065 144 138 140 1.0523961765182896 45 534 11 417 4 691
4387 -1.0038312799645694 0.45278106467879875 1.9240040618063916 0 0 0 0.98526561942531032 5 586 50 1315
7714 -0.91631282382564272 -0.15906689431231369 3.0543559523437387 115 111 108 0.88715299047686458 40 1810 42 1264 39 1326
7200 0.80731421366954681 0.67785675120365063 2.4504992684716109 147 148 143 1.2292588733477239 34 1421 31 2579 26 499
129 -0.40917047537667978 0.47687659352994238 1.9932499507533203 113 114 106 1.3824053127563902 8 1056 12 767 9 1254 14 1226
6091 -1.0090609235483206 -1.3769014020390344 1.358709890901342 30 26 23 1.8738728526969932 5 121 44 135 49 62
5964 -1.9722619972596704 0.0058100496013304822 2.2599302418165124 140 136 137 1.123555519447252 44 1398 11 1545
7073 0.36041699411680928 0.030062344187979557 2.6513735545153891 121 116 120 0.92578486360576751 27 1388 24 1383
4716 -0.69893781098061292 -0.98181173720646919 1.2802498144541081 0 0 0 2.2706912858421688 5 1893 51 2128 52 1896
5112 -0.40733094187222091 -0.87058061054235403 1.420236425656259 142 105 66 1.3847660844761778 25 2663 20 2581 22 2621 18 1073
7330 -0.25626410395055033 -0.69460274718806136 1.813459977415389 143 105 69 0.11887858714331187 31 1378 26 205
4131 -1.3558121967270571 0.3282336106272597 1.9523746724728934 134 129 126 0.7567885198804416 51 705 52 405
7458 0.12306688019755102 -0.15575689961217656 2.5484447762045455 87 82 86 2.3315423343424997 27 2437 40 3151 39 2527
6917 -0.16250090029894138 -1.0657741387503652 1.7223504013631932 49 45 34 1.40298680923328 32 1257 29 873 31 3062 26 1132
4382 -0.26962908794414558 0.8179913274774655 1.9929604647276244 81 82 84 1.1817918860149375 50 1651 2 474
7712 -0.84265726131833563 -0.20582492121586848 2.9840790532324553 121 117 114 0.53368081259458189 42 1243 39 1298
641 -0.72183425344834151 -0.10582546367933383 1.7922576755696602 138 110 63 1.8862964460164484 14 4836 8 3463 9 2392
4155 -0.51569407616709895 -0.97027154778391234 1.2993483570170934 87 65 43 1.5796162292421079 9 960 52 756
6373 -12.917071574276704 -0.70761902756078476 1.187838511990339 250 250 254 0.74463611668370533 32 907 34 1555
7035 0.53574306514892023 0.11955110012510604 2.4212366894871815 109 107 110 1.2820491867226498 27 809 24 558 39 1615
5331 -1.3655693341481279 0.044402213719917753 2.1079355179347883 183 178 182 1.4428644340807253 2 428 44 1313 11 1090
617 0.0096708251736689725 0.4287262844965799 2.0726881257022707 135 134 130 0.39937934614414916 14 4628 8 3166
2974 -0.23507204924593833 -1.0931964483469616 1.4840935652993927 96 72 44 0.16725958704120567 25 2146 22 1588
7549 -0.10620138694355583 -0.18495239340998265 2.7809039875870356 135 131 132 1.1113434995211768 40 1972 36 1841 42 1273
105 -1.6631613590109742 0.40201666952424364 1.9982899768604478 156 152 149 0.25534671529847391 14 1120 8 1257
5192 -1.5574290921282576 0.0050220127919874593 2.1227438457003593 142 137 134 1.5762356835099904 2 1332 45 1355 44 1333 11 1103
4345 -1.0282231183218313 -1.2787565170558248 1.4690479272773744 39 36 27 1.0501658003460184 50 975 2 190
7672 -0.65652615179907703 -0.23967610975523965 2.8993979876421667 165 159 161 0.63513446297155085 36 2521 42 2432 39 1878
6590 0.0858400638931925 -0.24802814477904067 2.9036690114288883 16 12 9 2.6089673003782554 22 1159 30 1034
7418 0.16945424885248622 -0.11047474255798817 2.6194890753421447 92 87 91 1.5610543971252191 27 569 40 2064 39 664
6336 0.62996274891400006 0.21028818305381228 2.2875243541177532 147 142 139 1.2715891265083359 34 1213 24 1445 27 1859
3979 -1.0144442421374658 -1.1282040749993325 1.4639912842569969 59 53 41 1.5342705143263211 51 1805 5 1558
4116 -0.86640879892911904 -0.57768147668000991 1.4518549331047399 49 34 20 1.0165836547181559 51 380 52 236 3 227
6334 -0.72330194120153024 0.59493078678680278 1.9556282627182136 0 0 0 0.87337478379213462 15 1125 32 614
7421 0.19667234172373163 -0.10096739085811991 2.6091988920884246 92 87 91 1.0741576210668826 27 577 40 2076 39 1427
4121 -1.0593085134964948 -0.011514763342024096 1.8847978706020601 133 103 69 1.2935103664451484 9 1123 52 299
6339 0.2775745492765978 0.54683212651536273 1.9757921764254609 118 113 110 1.2558056590025213 25 1290 34 1258
4217 -0.65545525653833803 0.43106709141675537 2.2748492995729799 157 154 149 0.63407027371295266 9 1245 52 1362
7544 0.10741745027101042 -0.16456524561605304 2.5158643512418792 98 89 94 0.26100135250546458 40 1968 36 1797 39 1905
7030 0.28284904832797403 -0.03015544134369973 2.6323296101008964 164 162 165 1.1028373374890046 27 636 24 451
4673 -0.93804713389560423 0.69903771863881248 1.8302755671131392 126 125 120 1.4037377257097381 52 1407 3 1114
5921 -2.0114405362983261 0.12336270129838339 2.127223659981055 144 141 138 1.8591778291650156 44 2019 11 1788
1207 -0.5389428091884223 0.67380470806789194 1.9588568009160272 173 178 172 0.3432289886797773 14 1532 10 774 13 480
6876 -15.66231393422794 -3.0562474319094219 0.35326100762277246 0 3 0 0.75687529595969272 32 1572 29 1284
4117 -0.8868707213173419 -0.29614435819839469 1.8415492327102587 91 61 32 0.70027051939627027 52 275 3 256 51 1006
4084 -0.80163432301072535 -1.3412368931350067 1.1788784291293679 0 0 0 0.80634157122048533 9 2027 51 1541
7536 -0.17414580336352864 -0.23661616034872723 2.7372154013365066 128 122 124 0.78436067264118303 40 1915 36 1777 39 534
92 -0.95964789739910494 0.33146722275629747 1.9819804323889079 188 187 183 0.49880002347875091 14 1036 8 1041
5179 -1.0837203447407318 -0.97358108576354396 1.6517838541873184 48 41 27 1.8405154252370863 50 1056 45 1266 2 851
4082 -1.5033878205589668 -0.067753301337411864 2.1492658344330491 123 120 120 0.64074783136573377 50 1891 2 1550
7409 0.091651331839430292 -0.15529421122167636 2.4272581943089384 73 68 75 1.6673498961740478 27 522 40 1940 36 897 39 1304 42 1920
5052 -0.86275677148165697 0.90748010657306155 1.9084029714793835 141 140 136 2.6839775077735171 21 2145 15 2449
4200 -0.85307933249111934 -0.58337731934679249 1.4189802941639016 26 21 15 0.49162013895233281 9 404 52 1244
7527 0.015158466187018363 -0.18931722208859805 2.4265926670287614 81 76 80 0.66013524580857663 40 2498 36 1711 39 1870
3942 -0.95454523113235235 0.26445859464020888 1.9563053923205007 152 153 148 1.9555748468384502 51 1707 52 1583 49 1370
5051 -0.78616497799194129 0.80136676155493436 1.9508801644043836 141 142 137 1.7534113986539124 21 2047 15 2442
3969 -0.66643573353419272 0.43470469696085345 1.9084967788871621 148 146 149 2.0627880355090062 51 1719 5 1448 2 1321
5078 -0.40058586827825665 -1.0548718056348103 1.4058084218876599 120 99 65 1.143040612902815 21 783 15 161 32 119
7435 0.19922758718149197 -0.10149566440479367 2.4226737399022666 78 71 78 1.1945254579402937 27 1319 40 2559 36 1810 39 2246
6187 -0.97686703488710469 -1.2477168065160764 1.3339421133479086 0 0 0 0.67442368323307944 5 825 49 493
3830 -0.29932739901273425 -1.2292417394225463 1.5066640030107707 58 49 40 1.2688594103781352 19 2804 15 2674 17 3431
7656 0.34289663693162847 -0.013527587659658211 2.4108448779755327 141 135 137 1.7588046158872415 40 2104 42 1981 39 1969
585 -0.95632361322500692 0.4469935010430155 1.9396989622579304 175 175 173 1.0192940861022728 8 2900 12 2082 14 4361
7399 -0.19428898994817242 -0.27213203598748914 2.6406560737863249 75 70 74 1.2736193243728293 40 1859 36 1715 39 459 27 1241
7517 -0.67491014351463141 -0.35536208940104802 2.7280681170067078 106 102 99 1.1504262212064238 40 1756 36 1628 42 1177
7390 0.23846901367519557 -0.077791807069541974 2.4284761484711859 131 126 130 1.0073942277294059 27 581 40 1084 36 1063 39 1387
4090 -0.98464602576563753 -1.0053540732451827 1.3817219729811288 79 64 45 2.1589102016081507 52 1804 5 1812 4 2224 49 1505 1 1000 3 1586 11 2094 23 1366
7417 0.23654051776942783 -0.085073543685043801 2.4617170759131808 121 116 120 0.54417422609901489 27 579 40 2043 36 1847
5060 -0.29851507106943326 0.32126854722694997 2.0149189710308386 139 140 135 1.9733680437385859 21 2295 15 2636
6308 0.39729459076080875 0.88292027222573066 2.0327162194632513 75 72 67 0.69081622408368415 34 812 17 337
7500 -0.22955259825088381 -0.22985267688056596 2.79329034443316 100 96 95 0.29400493473462463 40 1916 36 984 39 1323
5877 -1.2999846795370802 -0.28970938946555774 2.3327592958880707 63 62 57 2.0585944259948081 44 501 11 1001
6984 0.22476972784867999 -0.089346210307585036 2.4071337089096985 128 122 126 1.3229501266524242 30 1050 27 2081 24 2164 40 2874 36 2551 42 1943 39 2432
5902 -1.9380432881941896 -0.019103650845568535 2.2645987955381783 112 108 109 1.7017387404350734 44 1379 11 1524
3941 -1.1222761665582459 0.19680761619484857 1.9505606937034934 99 100 95 0.72611841693937107 51 1461 5 1058 52 923
6159 -0.93440959759818831 -0.94369259399865546 1.3891356418567888 49 37 23 0.90585331370715994 5 1960 52 2017 3 1799 1 1081 23 1609
3802 0.098922961636842097 1.3264774741422498 1.8840020227036842 125 124 120 1.6621202034389322 13 2113 19 597
7490 0.096496453790405251 -0.15228019270205442 2.4163385929426155 161 156 160 0.77301083141050098 40 1939 36 895 39 1887
4758 -0.72754117692845044 -0.95527013526248228 1.3571808872613067 109 85 57 1.433590223243022 52 1806 1 1003
44 0.36232754958009156 0.15757288356389573 2.2704919346688675 135 135 135 1.0730031353055263 14 795 8 658
6976 0.18200891168637157 0.39461526908521011 2.0594339676910072 163 161 164 1.1746061755698807 30 1968 27 1803
5867 -2.0127505464954805 0.09227044492421077 2.1478109094190527 152 151 149 1.3392004649726748 44 1444 11 718
1153 -0.85299610011217009 0.46134904028525853 1.9965747053206202 191 196 190 1.6412344392349854 14 5190 10 3121 20 2488
3510 -0.95554833717562904 -1.069495308364617 1.4934808248065679 155 150 127 1.4977608638289512 10 2644 7 3555
4757 -0.25179708218313351 0.87825332576820081 1.9761890899760903 133 134 129 0.45856888008522245 7 3239 3 1390
7489 -0.096616550122943193 -0.24494270111198393 2.6111550139817385 124 118 122 0.5697937736422527 40 849 36 883 39 492
45 -1.4556132859706641 0.12519755668177551 2.1754812421730594 150 148 149 0.68556118383431719 8 868 12 530
5132 -0.98351455897624485 0.42042172328078881 1.9252011309015982 0 0 0 1.0313245617419817 5 1661 51 1904
6118 -0.014938862352639765 0.38817875591477641 1.9037211139302752 114 112 107 1.1417921923344936 52 945 49 713
3761 -0.4045290539919143 -1.0316431895602618 1.4169552454886551 69 57 45 1.0572676342680847 21 1980 19 2665 17 2989
6145 -1.2215520695336817 -0.28629063637875674 2.025475458773013 123 91 52 0.92067772499008738 44 1708 49 1321
3788 -15.422055123459476 -13.91199824704999 9.5927878330246497 80 79 74 0.37957714131890957 21 1645 19 2270
5005 -2.8050673024209805 -2.5088744279218456 4.4920969108145119 131 93 54 0.31276429344087397 19 214 15 1626
4410 -1.0984291453334325 -0.83109645275971111 1.8676830267939466 152 117 77 1.15748471096626 50 404 45 1280 44 1675
7737 0.18745298624552414 -0.035732322123200023 2.811177285033903 98 94 91 0.69788071386255512 42 2047 39 2036
3023 -1.2530565294282514 0.5169873823745349 2.0613297372697379 181 182 177 0.3093608042594248 10 2148 13 437
4153 -0.8313168566676673 -0.95055671743344361 1.3543548054803469 11 12 4 1.5432519496434749 9 292 52 747 3 143 1 120
7480 -0.74133941562695782 -0.23750200518050438 2.9261327144255231 130 125 127 0.68384227970970368 40 720 36 773 39 493
4721 -0.86022661570163805 -0.94684293233899663 1.3320981174816897 24 21 11 1.8859814595383593 51 2180 3 1797 49 1510
7078 0.692189240230768 0.39173291811836031 2.2548125306771221 144 143 139 0.056895081082110055 34 593 24 1551
7 -0.89000103048833834 -1.2405155596777824 1.3650039127143569 106 104 91 1.4888634502296303 14 362 8 352
6939 0.52118162865494688 0.24776704828872911 2.1323855640453835 105 103 106 1.4819676075658281 34 462 27 836 24 583
6934 0.43284121554063293 0.091184949822681424 2.177129265783643 136 134 139 2.2823814167086431 30 478 27 710
4139 -0.044538195583160481 0.67138113645188524 2.0855747797884012 126 124 125 0.88120367137136635 51 663 52 519
4979 -0.45996947407435756 0.28764268683788036 1.9333683247633016 96 97 91 1.6211661436619096 25 407 17 239
7197 0.41133530366122134 0.72824616079920579 1.9861196678590174 146 147 142 0.7896253531963795 34 1798 26 520
4840 -1.9269419718586833 0.81845302565682732 2.1987769987957728 155 155 148 2.2751740033789303 20 2031 25 1239 22 1215
7711 -0.21705258268583383 -0.28333625352816227 2.6560258202139537 103 99 100 0.59143656861377414 40 2482 39 1270
640 -0.72267648035667631 -0.10925684454568622 1.7829635475924486 138 110 63 1.6361902133848556 14 4835 8 3462
4127 -1.1217010956218951 0.2435661460220078 1.9449089506130288 105 104 100 0.30292884933962089 51 575 52 365 3 292
6901 0.14888967409201528 1.0384632523204547 1.5406324566374283 54 54 54 2.0160132503085486 34 2403 29 1500
7440 0.12400659432757791 -0.13552959987159993 2.6365318657766337 99 94 98 1.1743083923813369 27 1307 40 2582 39 1945
4705 -0.8944070673377772 -0.96440828209205576 1.3759816322983667 0 0 0 1.502944325928002 5 1712 51 2053
5814 -0.29650658071599822 -1.2600028837734394 1.5211255172008777 46 37 28 0.55767866754313034 15 2189 32 1243
4676 -0.94503397845153359 -1.2717158105095383 1.310102327046186 44 36 23 1.7477713168095879 52 1663 3 1208 1 787
6894 -0.14672382947667406 -0.75656384535394061 2.0774302576867303 72 44 30 1.5020381027887559 32 1614 29 1420
7420 0.30104844406837394 -0.045460091114590297 2.427150529660373 122 117 121 0.80348153470021255 27 614 40 2075 39 1417
5063 -0.3916455358755076 0.39649253834745735 2.0022026498150001 138 139 134 1.4461618788956556 19 2989 15 2703 17 3374
7676 -0.13494962560031043 -0.16199558399504327 2.8364862366036174 152 147 149 1.0079279414058584 40 2870 42 2471 39 2260
605 0.14771538298026796 0.14313751069379679 2.2505861844410098 134 132 133 0.56037815146860903 14 4599 9 2194 8 3141
6594 -0.089885651582277751 0.24986348383785181 1.8920571597540961 23 24 21 1.2579622136373625 22 517 30 1059
7419 0.30331314196272252 -0.039858939161025446 2.4136431991240412 71 66 72 2.1799723665388786 27 616 40 2071 36 1870 39 1962
6337 0.65130471875179663 0.2404457385926769 2.2867474411166264 150 145 142 0.725030710361799 34 1228 27 1496 24 1923
7414 0.13949187536504579 -0.14281844143961323 2.4804983022532276 130 125 131 0.97250009601993226 27 541 40 1982 36 997
7156 -0.311674301886118 -1.0622172941546026 1.380565020418389 150 126 90 1.7061857516955059 34 2437 24 2484
6615 -8.6948716339032526 1.3622245992769471 1.6376532009358211 240 237 230 0.1096959471069216 34 1595 30 1311
7670 -1.0065117338701863 -0.34266361251442773 2.7770736663803781 198 194 195 1.6493316598388077 36 2139 42 2405
599 -0.66362497090757644 -0.80182400285454658 1.2458939013074808 158 108 59 1.4539166013421871 14 4569 8 3099
2956 -1.3335954661068063 1.0587788619601097 1.9233014353712208 0 0 0 2.1435382371888339 10 1837 20 768
7723 -0.85096511016539644 0.16302122022304547 3.3216007566077157 147 144 139 0.22083267276913662 40 2012 39 1628
6073 -1.6704367761136907 -0.16788482300787055 2.4467806320462717 155 148 155 2.283411025298351 11 1102 4 738
7669 -0.93823865674269047 0.14619301287785003 3.3476958151330387 152 148 145 1.219700778951214 40 1017 42 2092 39 1585
4085 -0.73787966106456648 -0.53815818620925748 1.3446719221397057 97 72 50 0.90366549087089187 50 1090 2 364
7412 0.17301781057174698 -0.050284078441187485 2.3191490999697666 150 145 149 1.1069950778774194 27 1733 36 944 40 1974
7439 0.21540382484211518 -0.1014526981377591 2.4934597752878891 91 86 90 0.65815961567016101 27 1740 40 2579 36 2295
6330 -0.033318755412033892 0.029821970286846085 2.1682930705674832 147 143 140 1.3849461994243319 25 1156 34 1117
5789 -0.2690611232653754 -1.1632296503524258 1.5180842686139822 65 49 23 0.2281976499434098 29 325 26 411
4388 -1.4363666230544565 0.20777834941513185 2.0420908042805532 150 148 149 1.3157257979070884 51 1157 2 510 50 1276
4956 -1.3576806806522035 0.98336055047186921 2.0176459996190155 116 115 111 2.3206381135090215 21 561 15 595
6065 -1.0474468245318469 -1.3703960619756366 1.3575750183914754 19 15 13 0.74479694335918123 45 777 49 58
4077 -1.0231439055679394 -1.1302837137403592 1.4411637042092893 60 52 38 1.5210952970205853 5 1301 44 1610 49 858 23 505
6295 -9.0725584257762186 0.4347880262678171 6.6347466745262338 73 77 76 0.21850769515213941 22 238 34 285
7404 -0.029289533962610494 -0.22249539933749918 2.5366320326449423 124 119 123 0.4873856305959442 27 481 40 1905 36 873 39 494
5781 -19.690825474535504 -19.858363674703337 13.980475809891505 0 0 0 2.8437366181067931 19 1903 21 811
7650 0.062695592706778172 -0.17403440809951484 2.4447859033348109 190 185 189 0.9711346227028308 36 2532 42 1914 39 2219
579 0.1639294814264482 0.43574735029597933 2.1279473157898541 134 134 134 1.348247508617904 14 4344 8 2851 12 1883
2936 -21.617552687354198 -11.677949250383941 18.975054374877782 41 42 37 2.3841318019399713 20 2451 21 2205
4918 -0.67544309288783866 -1.0240744425591082 1.3190422011910719 0 0 0 1.8721828127469144 20 1919 25 1533
6027 -1.5796287147201038 -0.22307631344680692 2.3710228232955686 161 154 161 1.7646774647201984 11 1450 45 999 4 1276
