# 3D point list with one line of data per point:
#   POINT3D_ID, X, Y, Z, R, G, B, ERROR, TRACK[] as (IMAGE_ID, POINT2D_IDX)
# Number of points: 352, mean track length: 6.9597908402452218
8865 -0.099222859692971135 0.81448743454183969 -0.10439928413517728 115 97 56 1.7254394595195999 102 2301 77 672 56 1410 76 671 53 477 98 3025 90 1338 77 676
8864 -0.3050207550877776 0.7073988780411079 -0.11807668564550065 149 108 54 1.226007641186921 75 662 81 1162 72 1146 53 354 100 1915 70 752
8863 -0.1166517829724488 0.59481452208673213 -0.16525985354465617 73 71 67 3.0047795208868391 97 744 98 2649 100 627 81 279 53 265 72 1097 81 1086
8859 0.51279127292707927 0.14085043647099249 -0.022005102143633007 212 216 218 0.87807465871596979 81 2410 53 1871
8854 0.074499935104241091 1.0155101497962582 0.17123703669213242 237 247 249 1.5234922112907681 7 1834 56 2495 53 1844 52 1146
8853 0.80110234169953243 0.57091775402517086 0.10480440230902584 79 50 42 2.053148760880783 102 3296 53 1836
8852 0.65324539329339959 0.25514437042809923 0.031086690502284336 203 203 193 1.5969182318085506 81 2346 53 1831
8851 -0.2122704071066624 0.67567904193332529 -0.15336640309820351 184 176 165 0.34691342275851528 72 2383 81 2304 53 1801 6 1399
8850 0.68690697382881827 0.39756770145158549 0.03219751608925122 199 198 193 1.7683683983126113 72 2432 81 2377 53 1797
8849 0.59678862643672981 0.21049943562061038 -0.0044645319719032297 229 234 230 0.46181263447644094 81 2345 53 1786
8846 0.10506673278469096 1.2296746480015968 0.2232306045332183 174 181 181 0.68340839937736353 53 1771 52 1117 50 906
8842 0.6113176191589913 0.37583989161915465 0.011821819656506503 148 135 116 0.23850940166723125 81 2301 53 1735 6 1320
8841 -0.11047666348673124 0.32168577268609744 -0.10877253951119722 194 194 182 0.19115003292889324 81 2175 53 1712 70 1529
8836 -0.21190873316469014 0.85224166911870591 0.010755365004749193 165 121 57 1.0051517568370325 81 2256 53 1675 70 1559 52 1048 71 1017 50 842 1 645
8835 -0.23182877977814448 0.67542323087575751 -0.15944137887355081 175 177 166 0.20803670240942926 72 2155 53 1639 70 1104
8833 0.10122508105478271 1.0795541108408819 0.16128955050777741 92 101 99 2.7390517019481813 56 2178 53 1568 52 688
8832 0.29225593136098393 1.062508655265296 -0.051233923563378268 0 0 0 1.4055139495056204 72 2240 81 2269
8831 0.69653362841512256 0.6560186449201707 0.051323434603232673 187 181 159 0.79586527685211494 72 2406 81 2254 53 1531
8830 -0.36691831273318376 0.72786995860781145 -0.00093131994759951535 170 157 123 1.1974610953587774 81 1946 53 1510 70 1467 72 2003 52 1034 71 1005 50 828 1 775
8829 0.41155542614995366 0.25361158481922857 -0.00041684798889536114 0 0 0 0.6256068985877502 72 2142 81 2059 70 1099
8828 -0.15095117297178859 0.3477414790565303 -0.074306538028907354 213 215 212 0.86185803040394415 81 1846 53 1437 52 908
8827 -0.15377681352922506 0.31736479722192712 -0.042365479291984108 164 166 154 0.89839498899919812 81 1842 53 1431 70 1047 6 1192 52 752 1 694
8826 0.62300038184234541 0.065876679271227423 0.05491463061249046 219 220 213 1.3859348609481192 12 2254 53 1423
8825 0.16343059580260605 0.062110020088928748 -0.11984340677169893 93 69 28 1.4233647235513216 11 1750 60 1751 95 3088 23 1401 24 1144 35 959
8823 0.067377449940535239 1.3112321331787102 0.16081386861723157 57 60 53 0.14983946488997718 56 1941 53 1404
8822 0.077767539400763017 1.2835229986411523 0.027070930020774656 79 81 78 1.4473803821500197 7 1380 53 1398 52 865
8819 1.0978171172209543 0.004671284502845042 2.1722887867758902 74 42 25 1.0843167391198691 90 3705 53 1331
8818 -0.3094385128814815 0.76836137820013495 -0.043769389763148502 148 97 31 1.0059860260595259 81 2113 53 1312 70 1475 6 789 71 948 50 664
8812 -0.080995188284312292 0.16257023444560242 0.099218992344341089 182 183 175 0.57879002052087714 53 1136 71 674
8811 -0.11723079349762505 0.20604117002380559 -0.083234781736252775 159 164 161 0.044843479325542529 72 949 53 1119
8806 0.064659338397417582 1.294370872903839 0.046479448152213984 51 48 33 1.430588181269528 7 622 53 1099 52 703 50 556
8804 0.12522651102094579 1.2321764860546818 -0.017125244060034916 122 123 117 1.8148607637057492 7 610 6 439 53 1092 52 697
8803 0.21955412060513568 1.2180129482073598 0.0059581553642590714 119 125 123 1.4240673773567785 100 2715 53 1091
8802 0.11991796541570851 1.028728306492245 0.026104129847511294 216 218 213 0.65021686472987561 54 1317 53 1077
8800 -0.074472595060897068 0.95537150476749733 0.14411362239489067 85 49 32 1.2337109261878267 7 1356 53 1072
8799 0.4910179550471106 0.90315109000979488 0.0072549923931234253 163 137 102 1.1584666790782869 7 1342 53 1068
8798 -0.16256275282943997 0.88922948070175334 0.013245693899199464 185 140 73 0.7160194150428264 81 1734 53 1042 70 1373 52 654 71 889 50 684
8797 -0.16683924944975678 0.8712990775209446 -0.03061867289357284 162 124 61 0.87411010758885521 81 1720 53 1024 70 1366 52 841 71 886 50 499
8796 0.58032110413717042 0.76919901161302184 0.021318667030446818 204 190 177 0.41758498203664934 81 1738 53 1020 72 1814
8794 -0.33797247031835609 0.76757211248035839 -0.0058245192479952418 126 76 17 0.99407371893499175 81 1662 53 963 52 596
8793 -0.16272780736518372 0.76071120494376177 -0.12043187636449106 144 116 77 0.39062511186351112 75 2071 53 953 70 801 71 509
8792 -0.39999521077236355 0.65696574139132147 -0.050667044198407632 126 84 26 1.293897405727497 72 1132 53 893 70 1091 6 742 52 796 50 439
8791 0.082414610558790999 0.54368978599573548 -0.091107501472060343 143 139 127 0.046849351656516443 81 1574 53 864
8789 0.35717719776501478 0.36580201580208471 0.03003425976209894 177 172 153 0.37176367279948602 72 1648 53 811 70 1118
8786 -0.15648370370073422 0.37180342218988954 -0.050464874133384789 162 163 147 0.24204875995290792 81 150 53 769
8785 0.30750071959583208 -0.15420174782886403 0.6075712111517928 228 229 221 1.6701623842235742 77 1656 53 718
8784 -0.11459265393210336 0.17506507189625378 -0.07446116022061397 201 205 204 0.55597575418505008 72 23 53 699 70 617
8783 -0.12049520180660482 0.16596413414425573 -0.053683322032696337 190 195 189 0.62386521025467612 81 33 53 698 70 4 52 445 71 2 46 58 49 71
8777 0.099802963857236901 1.180382530345643 0.079515403941183144 152 131 109 2.4256658411937275 81 843 53 641
8776 0.12336363765786731 1.1456395253690643 0.27994833118630513 182 186 187 0.96439068167544106 53 640 52 861
8775 0.28725300284577182 1.0629709948380648 -0.0013793032957898803 56 60 46 1.1965322801844325 98 1949 53 622
8773 0.11507137315586655 0.89334638948843437 -0.059022854754445207 131 111 76 0.21494624967585327 7 565 53 559 52 332
8772 0.024549767647470726 0.82390050891961808 -0.10001695840568109 119 100 68 0.77266784009106648 55 731 53 502
8771 -0.27661122839092461 0.81979287554300273 0.022444797121950012 129 80 17 0.56963737818922733 72 580 53 498 70 838 71 518
8770 -0.28731213962244617 0.81119680511459957 0.051800906489343879 151 107 43 0.72927836444891447 72 1307 53 497 70 836 52 264 71 516
8769 -0.32610408734608576 0.80795699317461844 0.07012910999961286 67 41 24 2.2144422058277535 12 636 53 490
8766 -0.2801967600114002 0.77888199924854229 -0.065463911156880675 145 99 40 0.48025967798550789 81 525 53 451 70 223 52 239
8765 -0.082706722485835008 0.76515630419675806 -0.12728908688963386 158 145 126 0.2024493721557267 56 637 53 444 70 270
8764 -0.31770654777480445 0.75423686548220548 -0.056557921299414858 100 47 0 0.34973311791242778 81 482 53 427
8762 -0.34965076749976676 0.72005193882338381 -0.075477471026146714 115 65 7 0.47562705804938465 81 432 53 379 70 755
8761 -0.35538470498954844 0.71187978602344681 -0.067840330268449378 125 68 13 0.14723816256290309 72 377 53 376 71 107
8760 -0.19244995750419602 0.67674713785152785 -0.1483774903822373 0 0 0 0.78363765903983862 97 896 101 902
8759 0.2733945174664838 0.53251029896125868 0.013754176491854198 161 157 146 0.33143304120461042 81 419 53 315
8758 -0.15346984677592851 0.65167371698641641 -0.15618296749837493 142 131 110 0.45717332155395424 12 484 55 520 53 307 70 153
8757 -0.40656516150314892 0.64818868991295386 -0.04804385052131379 152 128 94 1.0902226155731884 81 332 53 301 70 714 6 297 52 156 50 128
8756 -0.34802785052494178 0.65931834409658907 -0.13703516780343472 100 67 19 0.35113284953527996 81 1103 53 292 70 119
8754 0.28082240197258507 0.45523220002272402 0.045734964943780931 102 98 86 0.33658371690960376 81 1126 53 263 6 647
8753 -0.2655300473269504 0.56951456339086604 -0.16433750210276968 0 0 0 1.4488853275228677 97 1900 101 700
8752 0.32811824785443999 0.27430328355736006 -0.0099726842722398009 142 126 99 0.22879075311097422 81 168 53 151 70 131
8751 0.095655099632359644 0.318770934796757 -0.057231574810223916 209 206 189 0.30342529564498316 81 1002 53 141 6 116
8749 0.25242255203102115 0.24422241135076583 -0.036371415851146061 158 147 119 0.39553082455532851 72 1019 53 110 70 99 6 99
8748 0.14456817598363336 0.21738118700352541 -0.048209270449307604 207 197 172 0.48756210644592651 81 954 53 90 6 592
8743 0.1729064586857757 0.059708523188205784 -0.11115814917278335 211 212 207 0.32062325401554714 81 889 53 25
8741 0.048810997077880301 0.040412958245724294 -0.11652644127139217 195 189 174 0.54642446817181733 56 5 53 5 6 28
8740 0.57264550320168184 0.75900783461985233 0.018279543523013152 198 185 169 1.1869710476291115 60 2073 79 1648 78 1503 59 1726 58 1258
8739 0.2755289905784013 1.2046611378163818 0.051733506913622232 93 98 93 1.2064397238652105 56 1928 60 1479
8737 0.29823023480044314 1.341478145355381 -0.020127978866345996 53 52 48 1.3094024756592741 102 3091 60 1150
8736 0.15936003750884642 0.49153316692194454 -0.23753749704779964 192 189 180 0.52585722528214351 86 238 60 883
8735 0.31943561814036947 1.2256913519773989 0.021995300329811066 86 89 80 1.8924875889101613 102 2493 60 667 59 1248
8734 0.66268283093805092 0.31416988596956935 0.034167242897230263 185 186 179 1.757587877202617 76 1413 86 1304 98 4847 90 3339 99 3005 100 3144 102 3507 96 3850 97 3807 95 3153 55 1873 12 1686 56 1668 11 1566 7 1155 60 1545 22 1173 23 1070 14 1396 79 1054 24 1012 35 734 78 904 59 1310 10 865
8733 0.65078648974297015 0.21899947746132839 0.034227187750525509 114 104 95 1.5278152084016985 99 2967 96 3823 101 3515 55 2109 102 3726 86 1806 76 2014 60 1762 79 1267 24 1198 95 3289 78 1108 59 1455 36 918
8732 0.68693470531005119 0.74694659683554243 0.10323159257344437 118 106 82 1.754980487551882 97 2929 55 686 76 475 86 395 60 479 86 394 102 1204 78 689 59 849 74 170
8731 0.78087082139122499 0.44970709191250413 0.14271558522021635 115 100 75 1.4894844794375386 97 3848 11 1629 60 1796 55 1602 76 1808 86 1834
8730 0.057749234865911492 0.63551430978768397 -0.087698704221167476 216 215 213 1.2501268247928723 98 5125 90 3661 102 3611 96 4052 101 3695 97 4037 95 3333 11 1827 87 2311 60 1840 76 1913 86 1734 88 2031 22 1681 23 1474 14 1616 79 1364 24 1359 35 1408 78 1213 33 1226 21 1066 26 1104
8729 0.072209853992626152 0.43075711010909368 -0.085383570653174728 224 227 224 0.91059313531037434 101 3533 97 3835 95 3148 55 1909 11 1586 86 1404 60 1615 98 5091 99 3240 100 3391 75 2288 90 3610 54 1994 12 1905 56 2016 7 1473 23 1298 14 1413 79 790 24 1184 35 1043 59 1361 10 1060 26 1072 36 850
8728 0.21686713062875168 0.31013528502537802 0.0016463424422868481 135 125 104 1.0261200883293748 76 2036 86 1850 60 1785 99 3336 102 3992 101 3658 97 4097 11 1906 23 1272 14 1569 79 1318
8727 0.72923359765226003 0.31918362265433525 0.0840413745031586 154 152 146 1.3181034050453946 101 3669 97 4099 95 3306 60 1776 86 1816 79 1419 78 1118 36 959 74 830
8726 0.4663212413324776 0.10269171191294765 -0.030140270515674177 195 197 195 1.7336918532741727 76 851 86 785 98 4008 90 2931 99 2161 100 2239 96 3549 101 2944 102 2552 95 2525 97 3088 75 71 55 946 54 909 12 863 56 82 11 799 87 1489 7 57 60 724 22 691 23 654 14 720 79 28 24 115 35 162 33 70 10 502 26 132
8725 0.6761409311468588 0.38052396915771358 0.03703773326150752 127 125 120 2.0978127934122903 86 1968 96 4107 101 3762 102 3903 95 3402 60 1913 22 1626 23 1555 14 1689 24 1430 87 2115 35 1395 59 1632
8724 0.68600537377896764 0.69519363127406253 0.06900823228720987 72 57 32 1.5676673113461921 97 3707 60 1377 96 2495 101 2251 95 2414 11 1127 14 1281 79 1347 59 1388 10 944
8723 0.70278410896011001 0.64138815689990358 0.064873858282370245 143 120 84 2.080678618747418 97 4194 95 3473 86 2094 60 2063 102 4079 12 2146 79 1640 78 1497
8722 0.28286897028813995 0.89991464526437392 -0.044034237742661186 139 116 72 2.3689600393902848 76 2311 77 2555 86 2068 60 1967 75 2951 55 2475 77 2622 12 2210 11 2017
8721 -0.13603880372038812 0.67873856034217583 -0.15682522651713937 190 191 191 1.7453734158527323 97 3373 60 1015 98 4954 99 3107 95 2724 75 2591 55 2199 77 2317 54 1856 12 1775 56 2085 76 2097 81 1920 72 1974 86 1915 60 1846 53 1271 23 1153 14 440 79 1377 70 766 6 738 52 193
8720 0.25384844177712579 0.11249698113287863 -0.062211966290233768 153 144 135 1.3970474230319787 90 2938 100 2754 55 65 12 1303 98 3244 90 1544 99 1350 7 689 60 744 76 877 86 67 53 53
8719 -0.0057750855989763894 0.59816910733228035 -0.11321562559509518 172 172 172 0.84679346225671226 76 427 86 429 60 396 96 2304 102 762 101 861 97 1946 95 1580
8718 0.72802649151608634 0.52571118409319006 0.066005554784548739 195 185 174 1.6431072022773232 98 2546 99 1727 102 2013 96 2968 101 2757 55 400 12 399 11 423 86 197 60 288 95 2329 97 3302 23 415 14 393 24 422 78 115 59 185 10 241 26 377 58 156
8717 0.19558533428905159 0.39600388525044916 0.024991554031921923 154 150 133 0.88392371455486884 76 274 86 266 60 266 96 2042 101 1803 95 1392 59 191 79 767
8716 0.43415320817151093 0.13096462291193536 -0.043418009552956251 146 145 140 1.200285743028084 75 81 77 48 76 36 60 54 98 4020 90 2438 99 2171 100 2251 102 2559 96 3212 101 2478 97 3100 75 87 55 957 54 71 54 919 12 878 56 96 11 811 76 863 81 110 72 113 7 73 23 122 14 727 24 126 10 53
8715 0.099356728365088354 0.61720223289333764 -0.06870936398368542 173 177 162 1.3581804017217434 97 4313 60 2180 14 1854 79 1682 78 1507
8714 0.49346690758639206 0.796834199132334 -0.0098453398439698123 181 177 173 1.3157845817145233 86 2129 60 2132 14 1806 7 1866 79 1680 78 1559 59 1774 10 1338
8711 0.35473975064925634 1.2464509554991843 0.19729638730797397 161 158 140 0.35021801431406252 54 2320 60 2096
8708 0.38528982439934956 0.96037842683061836 0.044979222643493487 150 141 124 0.77413024414241915 102 3958 60 1969
8707 0.74361584542333747 0.5876544305973187 0.10074946943175966 144 124 87 1.9050391758755869 95 3350 60 1937 14 1623 24 1090 78 1384 59 1660 10 1235 26 771
8706 0.004388779171599297 0.47528350817126347 -0.11534240447596182 108 99 74 1.3133981277532734 86 1988 60 1932 79 1492 78 1199 59 1377
8705 0.57548680476212377 0.4795679933377705 0.0077086604069861566 213 218 212 0.71692049840024374 86 1655 60 1930 14 1699
8703 0.70659496470001559 0.41075723000651865 0.040944271954238928 0 0 0 0.43644267955681865 97 4178 102 4000
8700 1.0271021917338952 1.3618957652326673 -0.19555461764660945 59 50 42 0.99344306924013792 86 689 60 1891
8699 0.42677395181716271 1.1973778096859247 0.21175517931727786 166 162 151 0.55540719785424897 55 2349 60 1888
8698 0.40678881939079936 1.188821809279462 0.18627692794265649 78 78 73 1.7929085726122582 55 2252 60 1887
8697 0.40260593396356903 1.0956678248403677 -0.012861621896968317 115 100 80 1.4037061036715657 102 3961 60 1879
8695 0.60910217720614968 0.78638627474717693 0.050660497810589851 150 133 105 0.65491034562389694 76 2094 60 1858 14 1639 78 1331 59 1568 74 999 58 1176
8694 0.6843681289817064 0.73128233953835831 0.17357577957294404 133 98 44 1.2084471613408776 86 2001 60 1851 79 1494 78 1324 59 1560 10 947 74 995 58 1170 9 393
8693 -0.29378302211386714 0.67306857980618839 -0.16097851506193778 199 197 182 0.74251025706809981 86 1923 60 1848 79 1220
8692 0.54090283586815446 0.66605834048110868 -0.0040402924258339992 140 124 101 0.26958246830770549 86 1989 60 1834 76 2256
8690 0.083601048582619228 0.35262741080328336 -0.058912872396487952 123 115 106 0.24574363740730118 86 1867 60 1792 79 1473 78 1184
8689 0.78131207528403734 0.40839560944364489 0.1604072667530724 121 105 82 0.90413377600120082 86 1827 60 1791 14 1592 79 1434 78 1368 59 1634 10 1206 26 988 58 1117 57 1011 9 749
8682 0.5817700252254383 0.87528936815078562 0.18013633346607474 170 131 74 0.68354453157830974 86 1929 60 1711 79 1521 78 1336 59 1413 74 902 58 1060
8681 0.21291824019101011 0.82032028624912023 -0.087992949389631134 140 129 107 0.77151775701100944 97 3938 60 1699 79 1208 78 383
8680 0.031350279064953898 0.62157194598430288 -0.10062443714961904 172 172 170 1.0368670316673336 86 1731 102 3815 79 1363
8679 0.74929539073110007 0.63141332791931104 0.16400913975386563 118 90 43 0.54500662411354517 86 1692 60 1671 79 1334 97 4046 78 1305 59 1539 10 1130 74 986 58 1157 57 1050 9 538
8678 0.095012062592982088 0.45454338128112554 -0.055702722935880383 229 225 224 0.5825333795144626 76 1543 86 1694 60 1626
8676 -0.058279777892567983 0.44798384156430021 -0.14035892727642138 180 181 174 0.95764379534800281 86 1425 60 1624 79 816 78 721 59 777
8675 0.76891811341156779 0.49831817583540594 0.11181919837775431 197 199 198 0.65480740262573944 86 1355 60 1612 14 1465 59 1353 10 1109 26 748 74 857 58 1007
8674 0.78457169049715481 0.47099948463049068 0.1580320445373353 208 205 193 1.556299720992214 86 1641 60 1605 79 1297 78 1148 10 1100 26 1004 36 749 24 789 74 849 58 996 57 1025 25 713 37 465
8673 0.78295577802784766 0.44154847172565448 0.18449012762289693 119 105 76 1.0066932091040122 86 1637 60 1596 14 1600 97 3847 11 1627 79 1292 78 1141 59 1498 10 1215 57 1015 9 754 13 1076
8672 0.78382839442298369 0.44213715129049219 0.18376476938140013 119 105 76 1.1222078899407724 86 1636 60 1595 14 1599 95 3199 79 1291 78 1140 59 1497 10 1214 9 753 13 1075 29 743
8671 0.11800047505609784 0.29358086228755359 -0.047994875362449098 203 199 190 0.43786529587894196 86 1660 60 1565 14 1137 79 1323 78 1174 59 1502
8670 0.78055212765912207 0.37459353754390007 0.13711065109852852 154 155 140 0.58189876900569737 86 1615 60 1564 79 1276 78 1127 74 835
8667 0.52464193605481246 0.25721210308733161 -0.018505588551504915 188 188 181 0.17158194910963867 86 1601 60 1542 79 651
8666 0.39691659201420976 1.3058785376886712 0.2027435721139362 54 53 49 1.5388977324729365 54 855 58 933
8665 0.40915282642452039 1.1972722585761186 0.16213503545389302 82 90 92 2.1276633384052115 102 3064 60 1480
8663 0.26311551469803185 1.1703594680598728 0.17016626252248399 88 89 93 0.73084075238966228 54 1672 60 1478 59 528
8661 0.060516931912959718 0.94022564005171116 -0.041616753974425276 172 157 138 0.18516716462336347 86 1777 60 1459
8660 0.52028884981572887 0.91619206673824194 0.12699154728470921 147 104 49 0.33268890632755177 55 1784 60 1454 59 1421 74 908
8659 0.37987573309586364 0.86140700667004333 -0.042171319727449738 108 75 39 0.9457871630952448 86 1754 60 1436 14 1303 78 783 79 1205 59 919 10 388 74 261
8658 0.49774137141986047 0.85580423817633811 -0.0007282064726510907 130 101 58 0.74749625581305701 86 1498 60 1434 14 1306 79 1197 78 765 59 908
8657 -0.11209201052178988 0.79997355909915036 -0.11098101573977513 145 125 88 0.68716993410936433 86 1769 60 1431 79 960
8655 0.068275677732161144 0.78459165390550878 -0.1255850050124413 149 145 133 1.2556798115668719 86 1756 60 1422 59 1205
8652 0.75134439117492324 0.6173127964233065 0.20868699394626561 160 147 131 0.64500324939532316 86 1696 60 1358 14 1262 79 1338 78 1172 59 1380 10 937 74 876 58 1029 57 928 9 537 65 1142 82 948 13 647
8651 -0.3131667347389 0.52909056855456205 -0.16561144323234012 166 168 155 0.57340806301711544 76 1589 60 1346
8649 0.78180397268140012 0.51946251152043577 0.19193379812083841 122 108 72 0.43507405117817416 86 929 60 1306 79 697
8648 0.75759596080629776 0.45799114391884277 0.085368546497423897 201 196 180 1.5293137906865581 95 3012 97 3850 23 372 24 792 24 791 35 425 36 386
8647 0.1253991692934249 0.36320795659485067 -0.038043256846896349 100 86 73 0.61547512365152179 86 1390 60 1281 79 754 78 663 59 1097 14 1153 10 560
8646 0.38343616285741355 0.34212590648540991 0.034586632640174086 203 201 191 1.1728608921474297 60 1263 79 700
8645 0.40505572947313406 0.36131874585574209 0.029316181233331958 168 171 164 1.9884854798009453 86 904 97 3820 14 1403
8644 0.72058674087044317 0.27866515807259362 0.25313582200292534 169 162 143 0.18792072340854676 86 1328 60 1244
8641 0.74409115340023979 0.25194099795529185 0.12109533420957173 165 153 137 0.49786492027759371 86 821 60 1220 79 608 78 878 74 393
8640 -0.05640846030489767 0.12467908849954151 -0.11531861905272041 152 153 147 0.77711385657619136 86 1627 60 1218 79 1101 78 960 59 1052
8639 0.71549655790815159 0.25748579317909082 0.067028063186653955 229 223 211 0.72951162656721602 86 54 60 1217 59 635
8638 0.71440421102478879 0.25622357692605996 0.067858473182795295 229 223 211 0.93851842724225509 86 53 60 1216
8637 0.14194749795445716 0.13998911698877126 -0.069309126755428288 121 109 87 0.74382161192179252 86 1322 60 1209 14 731 79 676
8636 0.44303812641904988 0.19258717111309584 -0.036855761239931638 110 98 81 0.69758059564223207 86 1286 60 1204 79 641 78 69
8635 0.54595986685239051 0.078822782660183749 0.0080760580850338312 225 225 218 1.2493542077093227 86 1263 60 1186 79 12
8633 0.25897253035109535 1.3548473678572981 0.1608720721627559 81 86 89 1.1654031476155429 55 1443 60 1155
8630 0.39055064104827997 1.1942712840763163 0.15472995359246122 140 138 133 1.1555869753883616 55 1424 60 1143
8626 0.36727046893746473 0.89385066452024475 -0.022362574791204733 166 153 135 0.65951265945429594 86 1524 60 1095 79 933 78 393
8625 -0.14839160556138709 0.8305727639651701 -0.089071842036025944 151 136 109 0.79024267407704241 86 1175 60 1088 79 489
8624 0.38680969215682359 0.86357772421320722 -0.032162594855057389 161 147 121 0.89316562364589525 86 1508 60 1079 79 918 78 785 59 922
8623 0.63220588109220877 0.80732738395527093 0.20950686126164714 99 67 32 1.4572242212952904 76 1240 86 547 60 1074
8622 0.37150869587066881 0.84401853487458289 -0.045946590269318494 132 114 89 0.78885714090785486 86 557 60 1069 14 1004 59 430
8621 0.65047777594722245 0.77971769969596083 0.14880594433888875 146 123 73 0.35228144188304655 76 1201 60 1055
8620 -0.20700974270538552 0.72711038072279865 -0.14711721031970504 146 127 106 1.1744443280558092 86 1520 60 1036 76 1646 79 950
8619 0.5953838361451933 0.76228476378806087 0.036548950717642227 171 153 132 0.44002287157384989 86 1058 97 2936 60 1029 14 562 59 351
8618 0.69379415954719126 0.68629621774533123 0.25631283560473384 171 139 89 0.85738633701895373 86 1059 60 1017 79 808 78 228 59 834 10 349 74 151 58 650
8616 0.32026575191079459 0.69442698559379001 -0.027416133061478786 227 226 224 1.4738675617679338 77 549 60 1008 14 493
8615 0.064506923983540243 0.65570282640173039 -0.092297598260167799 191 195 194 0.71287565083045545 95 2732 60 1001 14 924 24 752 10 675 26 235 36 212
8614 -0.2106308441932056 0.63087957576063525 -0.16200050529663274 195 191 182 0.43157911040145908 86 1497 60 999
8613 -0.3322336159529829 0.60269153173886414 -0.17634110462894345 209 209 199 1.4567686006302767 55 1656 76 1175 60 993
8612 -0.032284536815429678 0.50279891367351126 -0.13538681733413518 199 198 180 0.55953109637308918 86 1019 60 916 79 313 59 800
8611 0.77487118773434926 0.53184083844260199 0.17855813410599775 70 65 43 0.39774192888082588 86 221 60 909 79 149 78 112 59 190 74 86 58 160 10 259 57 138
8610 0.78125387567938265 0.51780163447919447 0.20736376643320178 123 103 74 0.32681053936077809 86 1376 60 904 79 701 78 942
8607 0.16564511795101397 0.35864081180994645 0.0054266022456476897 167 162 142 0.28096254720015429 95 2123 60 863 14 235 59 182
8606 0.28389335258191778 0.35833250174038572 0.047403228921696607 133 127 103 0.26849599978778144 76 1823 86 933 60 858
8605 0.77924149203694015 0.38858845876840475 0.17845334876343108 179 169 146 1.1403952140255595 97 3244 60 850 14 848 78 568 59 1065 10 886 74 420 58 812 57 700 9 345 65 108
8604 0.78110724818064603 0.36574895901017479 0.16916465994025828 153 141 125 1.1731526918080752 97 3227 60 840 14 835 10 165 57 81 9 103 29 895 37 653
8603 0.74153618072905936 0.34771680831286944 0.088756199027117635 135 125 107 0.42541760692952707 86 1307 60 820 79 648 78 900 59 1048 74 51 58 557
8602 0.057872871003840712 0.21424263473679614 -0.0613881124725668 194 192 180 0.45301202559194897 86 1352 60 808 79 719
8601 0.74663546855036722 0.30083752714323236 0.10840903495306591 204 201 192 0.67927530838639716 86 835 60 794 79 629 24 304 78 542 59 648 74 34 58 547 57 62
8600 0.64701917713257195 0.2638501728928101 0.022779757153111858 0 0 0 0.0056258014199120025 76 890 86 60
8596 0.27018156903770402 0.057702131282849872 -0.081648608333727626 217 216 211 0.69988006699313743 86 802 60 723 79 50
8595 0.53924353747096654 0.06181389528706345 0.0036586727080667254 0 0 0 1.002727933186023 95 2516 101 3263
8591 0.45470015570693229 1.1348244566940655 -0.043999259043797243 109 101 78 0.64928427835276603 98 3965 60 657
8590 0.17140906323612803 1.0331201047726422 0.02105707337542255 43 54 39 0.44518513083458161 102 2474 53 1078
8589 0.52779719293828509 0.90277020837616095 0.097170552495675105 134 97 42 0.59020693866286722 76 678 60 619 78 377 59 471 74 253
8588 0.18279681059669722 0.89738501504503565 -0.077429112319477147 186 175 157 0.31142323392147236 97 3012 60 613
8587 0.59392626958427053 0.86831759028897071 0.14369110842942306 137 99 44 1.2302884366161584 86 594 97 1371 60 605 79 394 58 351
8586 -0.63035211288470694 0.6818989445232716 0.27696827269055962 117 93 49 0.24948960204123935 101 1835 60 601
8585 -0.058168190594904384 0.83977212027633674 -0.087170795009830507 146 129 95 0.99241428509196083 86 1167 60 592 79 483
8584 0.12931424497781754 0.85459307344012136 -0.098226384613547921 0 0 0 0.81168309807602912 95 1832 97 2285 101 2263
8583 0.071260099853649783 0.81874914390576947 -0.11899229406986096 161 142 112 1.5396686318285091 86 607 97 2942 60 562
8582 0.64358605771628341 0.79614133007928034 0.16735103572424123 103 85 53 0.61239916073275646 97 2290 60 556 78 294 59 399 74 191 58 303
8580 0.6314838194428638 0.78906165432926789 0.085782356407210755 137 102 60 0.38383383743725558 86 459 60 528 78 282 59 383 74 188 58 292
8579 0.66108779793909367 0.73902348750656111 0.2440156614933314 143 122 84 1.0800488430786996 97 1158 60 523 59 366 78 259 74 174 58 277 57 244
8575 0.7068488274625343 0.67381691210228656 0.26520997350760916 153 133 100 0.686370185847062 86 398 60 464 58 239 57 218
8574 -0.089033668225970433 0.64833532322218246 -0.15302110828241003 141 134 118 0.59979457485818022 86 1095 60 443 79 395
8573 -0.27415986958536037 0.61157477538131433 -0.1648055540295317 147 144 129 0.83552057707440419 86 529 60 432 14 368
8572 -0.24675509647189892 0.60576999739076243 -0.16360426436357425 0 0 0 0.57517780547720787 86 1100 97 2763
8571 0.28825711473061211 0.64775114670808198 -0.028446301665603021 196 193 178 0.23323651729420522 86 397 95 1686 60 423
8570 0.74234786243281448 0.65863859249115631 0.1623490577357366 127 107 72 0.61902414423743501 86 1006 60 417 79 769 78 979 10 325 14 520 74 479 58 640 57 563
8569 0.72805088789980976 0.66940588139561352 0.11118036400865877 130 116 95 0.5109863162462478 86 323 60 416 79 229 78 657 59 273 58 225 57 202
8568 0.33748932756987055 0.63517982003913764 -0.010247966227685496 118 111 88 0.27752994350731741 95 1687 60 403 14 461
8566 -0.014428692093011307 0.59323031136155657 -0.12844779865286723 177 177 175 0.45454786896282551 86 415 60 383 79 358
8564 0.75649262744863133 0.57639153500596207 0.23349832357542633 170 160 130 0.6683414409227012 86 293 60 356 79 189 78 625 59 770 10 287 74 466 58 617 57 160 9 159 82 166
8563 0.76425143119213046 0.53704400642161398 0.23819420083528967 150 135 103 0.52458206605939139 86 254 60 330 79 732 59 750 78 614 74 461 58 841 57 721 9 367
8562 0.12195912938503126 0.51889474116677692 -0.067130727759982994 162 158 153 0.45305705099753235 86 343 60 326 79 282 78 265 59 795
8561 0.77485541225534205 0.54156205928755341 0.16110448055740353 200 197 190 0.41876474579852491 86 223 60 314 14 428 79 150 78 118 59 741 10 682 74 90 58 603 57 533
8560 -0.043461240325819633 0.4639865500926636 -0.13586013948470291 218 221 213 0.69907301057663485 76 308 86 329 60 301
8559 0.78376333560468447 0.50636121609461893 0.17614700526527444 206 202 186 0.80991855810818747 86 206 95 1663 60 292 14 394 78 104 59 723 10 244 58 151 57 129 9 141
8558 0.76551129856276601 0.52347252671153044 0.11053505881312363 172 169 152 0.94316387022988868 102 2023 60 290 58 597 74 83 57 135 9 143
8557 0.78245267362725035 0.50051254442374604 0.15797718349922682 200 193 177 0.59072525069145565 86 194 60 284 79 131 78 599 59 719 10 666 26 386 74 457 58 596 57 524 9 361
8556 0.63935269851428189 0.50272700523409264 0.015129825288713991 233 221 207 1.2868727688229955 96 3416 60 274 22 323 23 842 87 377 14 361 35 456 26 353 36 365
8555 0.15678349176739934 0.41183246007700358 -0.0091396405103568567 129 130 116 0.82920805568278499 86 277 60 273 23 239 79 235 78 220
8554 0.78561238784068022 0.45512442241071244 0.18076110569789935 176 173 154 1.0496217123190801 97 2691 60 258 59 161
8553 0.77138113888800819 0.46387779110134658 0.10830246269037722 216 212 201 0.78122768764175898 11 999 60 249 14 878
8552 0.77138113888800819 0.46387779110134658 0.10830246269037722 216 212 201 0.78122768764175898 11 998 60 248 14 877
8551 0.7835385465132394 0.4444208503605479 0.13084741255636292 128 121 103 0.56217364125173275 86 147 60 236 79 107 59 152
8550 0.75643882601117995 0.43971180866146542 0.093462732518903427 129 123 104 0.49525333142539546 86 139 95 1603 60 225 79 106
8549 0.75745045111726284 0.40645628223546976 0.09989948631488578 0 0 0 0.36954865000508536 95 1576 97 2647
8548 0.78185818385156625 0.37969625366331733 0.17091182108127093 117 106 77 0.94584850603472503 97 2631 60 203 14 293 78 68 59 680 10 605 57 499 62 168 13 572 29 205
8547 0.057844692040484182 0.26084353660140674 -0.05832583034562009 185 178 158 0.45457542692192032 86 199 60 178 14 174 95 1278
8545 0.33336085615072991 0.2634315201422191 -0.015039265944053668 163 149 135 0.13400128500289307 86 128 60 156 79 124
8543 0.6949367189283101 0.31149030145616191 0.057299921987228969 201 198 190 1.004576888106141 86 80 95 2176 60 150 14 220 78 50
8542 -0.044364634228845581 0.17163033412649481 -0.11793787075261387 166 162 150 1.7411370061954028 86 156 98 4035 60 132
8540 0.68282063157057038 0.1565572687566017 0.10121610289586434 146 143 128 1.5009662365908361 86 16 60 63 14 749 24 185 35 175 78 13 59 604 26 646 58 26 9 54
8538 0.34172871963335427 1.3530347231119451 0.20633554574955706 145 134 121 0.28605953739927675 86 2145 79 1665
8537 0.60381491605604665 0.88145613003577883 0.16492596437680795 0 0 0 1.1648004046892861 98 1803 100 1227 54 1651
8535 0.28280474364058344 1.0054364181539333 0.013338155385019455 84 90 88 0.28282596585025488 76 2222 86 2071
8534 0.64208625291566079 0.86274163330817888 0.23731612578452005 152 120 85 3.2157609814504244 98 4720 86 1927
8533 -0.058239854926286611 0.088301771919779434 -0.11362000740988358 255 255 255 2.2160251316151682 76 2026 99 2141 86 1824 60 1763 98 3997 79 1449 78 1294
8532 0.56558709131076323 0.8615865436969794 0.24206641859066505 161 129 83 0.8311036451418401 76 1276 86 1767 79 1523 78 1414
8531 -0.22109996404076651 0.69669034717001155 -0.16162707614196292 181 184 177 0.97049520155876956 76 2108 86 1761
8530 0.55198861924272347 0.92080106547069607 0.14092172956435603 0 0 0 0.49108133781564972 98 5156 100 3307
8528 0.24975120751721172 1.1794251721549194 -0.0037822224911838978 78 84 79 0.79569522019119499 76 780 86 1207
8527 0.69674255481100233 0.61460516743798754 0.32474143441049691 255 253 250 0.48485759683219265 86 1043 79 791
8526 0.48025178456766321 0.85706553624400539 -0.0077330570344812163 182 170 150 1.6889845074386318 98 3908 90 2278 99 2019 100 2664 102 2999 75 1651 55 1351 77 1841 54 1280 12 705 56 845 11 1172 76 1220 86 1115 97 3459 95 2459 60 1076 14 599 79 901 78 770 59 909
8525 0.58518551209704639 0.86924010173809663 0.13041989353317621 175 139 84 1.8405915640355541 55 829 76 1251 86 1139 75 1011 102 2424 77 1460 60 600 79 903
8524 0.3181988673484682 0.84404117102733422 -0.051176535591631524 131 120 106 1.8051246324734838 95 1000 101 1349 98 3072 90 1334 99 1119 100 1169 102 2359 97 2298 75 885 55 760 77 708 54 701 76 602 86 573
8523 0.73141577865816998 0.28833377112982489 0.083120736945091991 133 128 114 1.9035629290664426 98 2258 99 315 102 1758 96 594 101 1824 55 1528 86 829 54 1005 99 2243 96 3602 101 3329 12 942 76 904 77 212 60 781 14 1146 79 622 95 1414 24 298 35 284 78 541 59 642 10 862 74 33 58 545 57 58 9 83 25 421
8521 0.65806171886165066 0.39508459829639664 0.02178688709377475 168 165 152 1.7234775662677753 96 3647 101 3099 97 3597 95 2690 55 1554 11 1334 86 1332 98 2373 99 1592 100 452 55 276 77 282 76 148 60 193 60 1256 23 318 14 836 56 326 79 1075 24 349
8519 0.17703642629906297 0.65035011494842865 -0.052000990889597414 104 100 83 2.4057983112782622 86 1473 98 2761 90 971 99 776 102 915 96 1329 12 515 60 1841 79 880 54 1169 76 1598
8518 0.50838966489704918 0.89672997942183497 0.042680074384286781 135 108 81 1.5797036014802897 102 3407 97 3469 55 1778 77 1862 54 1648 12 1229 56 1909 11 1473 86 1516 76 1664 97 3031 60 1097 14 625 79 1206 60 1447 78 1047 59 1213 74 749 58 900 10 762
8517 0.55024445022036894 0.24571007203361792 -0.016749362072377746 204 205 192 1.4583952702900818 55 2110 76 1766 86 1287 102 1707 96 3271 101 2561 95 2107 12 169 87 982 7 122 60 1215 22 160 22 1429 23 209 79 58 35 273 33 117 21 88
8516 0.77566705523814394 0.39132180464617899 0.11224535766756533 194 192 188 0.94964426612800223 55 1572 76 1448 86 1618 97 3827 11 1599 60 1566 10 1203
8515 0.449852067783376 0.87810682080254765 0.0014591198172371584 75 61 38 1.5111328056008353 76 1949 86 1509 56 2162 60 596 79 402
8514 0.77706442489083249 0.41848167695642169 0.11427469653696473 131 128 118 1.4006988954395074 97 2657 86 123 55 322 11 332 102 569 76 168 60 212 14 312
8513 0.29307536518724636 0.92920850961924639 -0.028537236986873691 153 136 107 2.1774165688531513 100 2684 102 3409 75 2151 77 1866 54 769 102 3028 56 1498 76 1678 81 1392 72 1425 7 575 86 650 75 1680 77 808
8512 0.49190607181481527 0.088801699109453985 -0.014471419063924794 217 219 218 1.7672976230659334 75 77 77 38 54 911 56 86 7 688 86 8 98 3236 99 72 100 73 96 2657 101 2460 102 1603 95 1995 97 2446 55 48 11 84 87 901 88 38 23 102 14 75
8510 0.016373582548583305 0.52064145689247399 -0.098166981201131792 110 98 82 2.2242912584783707 76 2398 86 2170 79 1709
8508 0.26813514140941108 0.90916548108364614 -0.027209986150209538 141 125 102 0.87894362883305466 76 2388 86 2165 79 1700
8507 0.10369993984487581 0.49842017444781117 -0.040514988808045702 192 198 196 0.67423109325867958 76 2384 86 2162 79 1696
8506 0.10369993984487581 0.49842017444781117 -0.040514988808045702 192 198 196 0.67423109325867958 76 2383 86 2161 79 1695
8505 0.59113846816656934 0.80298024642047872 0.32762021978492345 255 255 255 2.6261324931840928 77 873 86 2156
8504 -0.37143278150405484 0.55358289594906696 -0.18917073089055275 255 255 255 1.0396136555398592 76 2385 86 2155 79 1697
8503 0.31311953433944656 0.75668879990867843 -0.060960605891046162 0 0 0 1.5174846709868546 76 2357 77 2671 75 3020 86 2153
8502 0.58571775379293367 0.1932200783442965 -0.024400922370656372 223 223 221 1.4740944851068238 76 2350 86 2147 79 1667
8501 0.28647643937859119 1.304238467997507 0.17319786685063246 59 57 60 1.9179536503205137 76 2343 77 2630 86 2142 79 1687
8499 0.15827739691588869 0.80918447805366278 -0.097112878272946165 170 172 171 1.6855619043981658 7 1933 86 2132 60 2137 97 4289 79 1656
8497 0.19250946810796954 0.027900218561011506 -0.12080212652350168 255 255 255 0.96063911504536514 76 2321 86 2114 79 1598
8496 0.63539549132570894 0.050141401128714597 0.059880030092020163 254 255 255 1.103987526901794 76 2286 86 2113 79 1666
8495 0.187186637383747 1.2190599529258033 -0.0040340405979147551 56 66 58 2.3728038131399258 76 2280 86 2108 79 1628
8494 0.41909080720568376 0.99937350464950025 0.23046718408876654 64 64 66 0.48770637048994214 86 2107 79 1659
8493 0.642725617782549 0.72332273286655668 0.038937227355950559 149 135 109 1.6821295737704698 11 2007 97 4244 79 1644 60 2069 78 1500 59 1772
8492 0.35889511666152274 0.60750112199017614 0.01113306498026039 131 119 98 2.4428180516233295 76 2334 86 2099
8489 0.40607388911937331 1.0449792980367283 0.20931373610272713 145 142 127 2.256169929256171 86 2074 79 1621 78 1468
8485 0.73835978067701891 0.58991956170888127 0.27581063368419234 113 85 46 1.1473162130398962 76 2077 86 2051 79 1675
8484 0.048284282423049954 0.057080679329834266 -0.098580120972379073 120 109 93 1.5347871559776616 76 2244 86 2039 79 1601 60 1992
8483 0.4985861724024202 0.027015547511023259 0.0029011680751286121 197 197 197 1.4859946588450335 76 2240 86 2033 79 1542 60 1990 78 1363 59 1747
8482 0.40409413586530779 1.2126206244277269 0.24346923644338161 136 138 133 2.3924730356203701 86 2031 79 1595 78 1479
8481 0.40026452929031175 1.166738174768124 0.23961094842597216 136 136 128 0.65888130750067442 86 2029 79 1592
8479 -0.1154466944789032 0.8456674707604388 -0.080663162530125135 126 100 73 1.8486078057514193 55 2336 86 2015
8478 0.54634280164254656 0.89499947264744206 0.19177232965660124 166 132 87 0.82037638149093606 76 2123 86 2013 79 1578
8477 0.68375595526985733 0.73119559368742681 0.17375156954558585 131 89 48 1.3261423445194802 86 2000 79 1493 78 1323 74 994 58 1169 9 392
8476 0.65537767960285287 0.60288398983166536 0.35480569393018024 255 255 255 1.400937111054088 86 1997 74 1164
8475 0.70386363582410127 0.62727966779779187 0.30305521440517019 131 111 74 1.9629749387840143 76 1604 86 1995 79 1562 78 1450
8474 -0.036029031915309678 0.31498025712293382 -0.1017916632330161 132 125 107 0.8293477774134923 76 2179 86 1981 60 1916 79 1475 59 1514
8473 0.44060099228776123 0.3077047748241023 0.00109313319686563 170 172 170 0.20586069585197542 76 2170 86 1974 79 1294
8472 0.44060099228776123 0.3077047748241023 0.00109313319686563 170 172 170 0.20586069585197542 76 2169 86 1973 79 1293
8471 0.60212578271446682 0.38667756251277302 0.0012483419645389114 121 104 84 0.5929808346434382 76 2171 86 1971 60 2005
8470 -0.22692117632198169 1.0436478398741877 0.62806389170337373 132 129 124 1.3842761609365548 100 3788 86 1954
8466 -1.028900839061069 -0.22156298959094362 1.2837913443007991 142 98 51 1.0508744935402388 77 681 86 1933
8465 0.53082008599160579 0.90710185593779535 0.15308126296488123 142 98 51 0.81050604470107956 76 2122 86 1932 60 1716
8463 -0.0069772156660929665 0.74462296259133787 -0.14772873421954696 116 101 81 0.97732493812611065 76 2205 86 1918 60 1854 79 1524
8462 0.61946680485913419 0.7602550326197226 0.31350785050590796 252 255 255 0.68642077735968177 76 2211 86 1917
8461 0.63174798533353449 0.74515212887211868 0.29814871434561779 140 117 99 0.70720980001285139 76 618 86 1913 79 1507
8460 0.66781291183218983 0.74396554274701399 0.16927024227303736 151 114 69 0.47295566789015198 76 1927 86 1904 60 1856 14 1507 79 1496 78 1403 59 1564 74 998 58 1173
8458 0.68056965347124154 0.5267495657833714 0.35214320051590214 253 251 253 0.48423752556540067 86 1891 74 1161
8457 0.028616830765848523 0.46465936375341216 -0.10831212884635594 116 106 94 0.090918951658262012 76 2059 86 1887
8456 0.61088571594786334 0.61992502734225718 0.0020986151013323512 121 87 52 2.0205915272449055 76 2063 86 1878 22 1266 35 850 87 1202 33 281 26 374
8453 0.77630290644477173 0.52596834444366913 0.17630708175890736 106 91 71 0.91393262336040626 76 1846 86 1858 14 1612 97 4024 79 1457 78 1287 59 1651 10 1227 58 1226 57 1093 9 760
8452 0.76161572194414129 0.53722274092149136 0.11252288457327737 210 209 201 1.0116092376410106 76 1832 86 1853 60 1813 14 1707 79 1453 78 1290 59 1649 10 1306 9 758
8451 0.77837385342513088 0.52052312813871648 0.14882548980963087 87 75 59 0.74909171608510261 76 1838 86 1852 79 1452 78 1284 59 1517 58 1139
8449 -0.037706682772677136 0.24201168805363638 -0.10795139826091624 193 190 183 0.71818301970411336 76 2177 86 1848 60 1782 79 1328 78 977 59 1338
8448 0.76944161087110574 0.51512011279902481 0.12020491964051261 129 115 98 1.1148357426636193 97 3876 86 1846 60 1620 14 1467 79 1450 78 1279 59 1515 10 1112 26 1011 25 488
8447 -0.089844508026427586 0.16288189737052028 -0.12941563573156512 255 255 255 0.42575117441367227 76 2029 86 1837 60 1771 79 1315
8446 0.26444792071240475 0.14601675663270164 -0.060253784753865433 101 85 65 1.0159156679204293 76 2019 86 1817 60 1532 79 1278 78 1142
8444 0.61744983359304051 0.12381756234138236 0.03881185000020887 165 166 159 0.35091517111302378 76 2153 86 1799 79 1413
8441 -0.16885799152704342 0.91701091295593418 0.036319707842122767 153 121 88 2.0487892036399598 100 2673 86 1781
8438 -0.1779100098198097 0.65617837922245847 -0.16094343177876894 131 122 113 1.5004402095938645 76 1923 86 1744 79 925
8434 -0.22055131629917094 0.52343294158222653 -0.17355297429495187 189 192 191 1.5261523229961951 76 2202 86 1726
8431 0.27849122797138082 0.62414102986228093 -0.028818346836621142 145 141 131 1.1805109112136314 76 1902 86 1716 60 1673
8430 -0.016548619423505349 0.513448689797668 -0.12387584557902714 144 137 125 0.50832312224925125 76 1876 86 1711 60 1642 79 1172
8429 0.06129225928484882 0.5056287143754199 -0.096879638917284308 125 109 91 0.16778172649100911 76 1869 86 1708 79 1167
8424 0.46635334813043827 0.31690188730867785 0.013259018883349023 188 188 186 1.0591414285229126 11 1780 76 1442 86 1625 60 1781
8423 0.15213047762710963 0.16472192072208058 -0.051736077200099852 115 97 76 0.88138907265796673 76 1418 86 1621 60 1539 79 1091 78 941 59 1046
8421 0.27439215689269353 0.02993318851569093 -0.081627487970604595 222 224 219 0.74829552299779567 76 2150 86 1590 60 1741 14 1542 79 616
8420 0.69905363481218774 0.12575793690588835 0.12184429614379712 255 255 255 1.2349646665679266 55 92 76 1376 86 1584
8419 0.6084843817360881 0.10211469839612841 0.029542621154447831 226 230 229 1.3080929676360034 76 1750 86 1581 60 1899 79 1262 78 1103 59 1452
8418 0.25897963147862257 1.3405439913981707 0.00916930052711591 67 74 67 1.4419072920713973 76 1728 86 1570
8416 -0.29344419619200995 0.83436690316792983 0.068402244370305551 162 128 100 2.9726384508164596 76 748 86 1549
8415 0.32528191020494046 0.93437614545384728 -0.006814070200217015 156 146 134 0.49457751742673317 76 1680 86 1533 60 1456 79 472
8411 -0.31701058151671513 0.62845848385858105 -0.17535764601043755 193 194 186 1.0916037446546578 76 1928 86 1506 60 1378
8410 0.80367146757357677 1.2931609288080144 -0.65055177110205309 255 255 255 1.6632533394275462 77 2150 86 1495
8409 0.65264586574498051 0.75743145515410526 0.24353265064402066 136 117 93 0.88431871963214181 76 1221 86 1492 60 1425 79 1182
8408 0.65570387832042742 0.74301714572769884 0.25100371393582993 102 91 72 0.62478829478722864 76 1216 86 1487 79 1178 78 1014 59 1186 10 951
8407 0.6563784159857966 0.74321446113043399 0.25124523398907922 102 91 72 0.86327009405650601 76 1215 86 1486 79 1177 78 1013 59 1185 10 950 14 994
8406 0.64016999628542692 0.79226515669784836 0.095731621123594887 154 120 74 0.59226259817217097 97 2968 86 1481 60 1052 14 592 79 856 78 1019 59 873 10 387 74 514 58 672
8404 0.21961321604909098 0.62740036787826337 -0.050518762405127017 196 192 183 0.37624506977020683 76 1903 86 1460 60 1367
8403 0.077410420754513654 0.58559976140114089 -0.088335761622949205 190 191 187 0.47205215198400979 76 1901 86 1459 79 863
8402 0.079975890775729058 0.58614733471788316 -0.090112218109025616 190 191 187 1.0587833898952046 76 1900 86 1458 77 2447 79 862
8401 0.054940761393132309 0.53965239565200762 -0.094409696864409989 180 173 163 0.20285667164353152 76 1882 86 1442 79 837
8400 0.15030825211909277 0.47680954135249393 -0.024810240327328176 115 107 94 1.0247589738047833 90 3077 86 1422 7 801 60 1310 79 1156 24 699 26 619
8399 0.75679690355775231 0.6050943283823853 0.21910121507748465 100 83 58 0.86531840860427656 76 370 86 1416 60 1351
8398 0.72150399317529523 0.65395420786096614 0.090769778623212644 182 178 165 0.60080343043435347 55 1238 86 1409 60 1359 14 961 78 975 59 1139 10 711 9 378
8395 -0.074948130292600307 0.29473462756449653 -0.11327631351107452 175 172 165 0.33210168852398847 76 1813 86 1380 60 1267
8394 0.21681925963013285 0.33473746737143661 0.03773631378844125 45 36 29 0.75721095358305746 97 3212 86 1375 60 1270 14 1152
8393 -0.10524936454624416 0.25706816173647384 -0.12420038094028632 146 146 146 0.39969243531721677 76 1481 86 1373 60 838 79 751
8392 -0.067356843029805172 0.25024312472870547 -0.11965960570486082 192 192 184 0.51052325464317394 76 1795 86 1364 60 1248 79 741
8391 -0.091575599165908961 0.23266006968184802 -0.12693422945438862 144 144 136 0.60712483086472624 76 1793 86 1363 79 740 78 984
8390 0.47305669707533604 0.43833941020467221 0.015559759767010543 184 183 179 0.085478724236687481 76 1492 86 1361
8389 0.78411302364980218 0.48496462484641406 0.16147972582269332 125 111 95 0.64972680244235459 76 1507 86 1357 79 1093 78 936 59 1349 10 906 74 687 58 829 58 1002
8388 0.4637922996145924 0.36542801253087598 0.0058004750100997182 185 186 178 0.097387131382302553 76 1459 86 1347 60 1570
8387 0.4637922996145924 0.36542801253087598 0.0058004750100997182 185 186 178 0.097387131382302553 76 1458 86 1346 60 1569
8385 0.78758259597119629 0.39956721134521378 0.12506923428995395 209 210 202 0.1342409655539919 76 958 86 1329 79 1067
8384 0.57720069888343029 0.33374091427451741 -0.00084135817867184615 112 105 95 0.27398762430101298 76 1423 86 1316 79 663
8383 0.74706885533956824 0.28347729523201931 0.097377638287229243 231 235 233 0.65400015793915789 76 903 86 1288 60 1226 79 1040 78 883 74 401
8380 0.61069907744485208 0.17288213139694858 0.044338453186155223 229 230 225 1.255064084753758 77 1972 79 29
8379 0.60140081832248227 0.13199731709825502 0.014168296250084424 233 234 229 0.74946064358365949 76 1371 86 1265 79 1029 78 871
8378 0.39785595498048054 -0.034837585173558581 -0.0089614240029231591 217 221 222 0.24319019168309655 76 1744 86 1261 60 1987
8375 0.28674954532821456 1.3527464148536654 0.1286942506887421 109 112 117 1.1785294435531544 76 1733 86 1237
8374 0.39798163535331327 1.1700384151316494 0.30375596766719709 139 146 152 2.5081884187807688 79 997 78 839
8372 0.47484720175263179 1.0128954686448439 0.088473346362991173 114 94 78 2.1678931490868667 86 1186 60 1123 24 483 23 917
8371 0.48309722035553898 0.93983996043220996 0.17187861910011351 152 119 79 1.0781482190281571 76 1292 86 1178 79 1222 78 1058 59 945 74 757 58 916
8370 0.47897253233266629 0.94150454849104248 0.1564508182776593 113 80 44 0.91629160481679828 55 864 76 1693 86 1177 60 641 79 958 74 273
8369 0.18344377876957896 0.92607766483100684 -0.058633536508724708 173 155 141 1.0789536054411994 76 1682 86 1170 60 1106
8368 0.46822496345622339 0.92287096682380299 0.057117491197873481 122 96 63 1.4669329630019232 77 1476 86 1161 79 446
8367 -0.21053979742225354 0.71215612461557065 -0.15094522639022862 109 92 76 1.3170816516133961 76 1641 86 1144 60 496 79 946
8366 0.096560257014531276 0.78323137040330659 -0.12378143749763135 134 128 118 0.59447349940348626 76 1205 86 1129 60 1420 14 1278 79 430
8365 0.62845272403325159 0.82646542289901792 0.20116928119559516 119 95 59 0.96539306159888805 76 648 86 1125 79 894 78 749 59 905 74 525 58 684 57 780 9 210 10 756 65 865
8362 0.55715051248199599 0.83568396967535008 0.04500178513646113 149 123 90 0.93907695721905693 77 1417 86 1103 79 886 78 751 59 897 58 329
8361 0.62339267673805687 0.70528430379062057 0.31543659521095524 149 129 108 0.42685434725288918 86 1097 78 1197
8359 0.10463715657845693 0.62887518090883665 -0.070657894059062337 165 160 149 0.58723985717727345 76 1593 86 1070 60 420 79 355
8358 0.66123108465769387 0.77356166556506012 0.10507451074095947 154 122 79 0.59782599854685214 76 505 86 1068 60 518 79 310 59 367 74 508 58 664 57 251
