# 3D point list with one line of data per point:
#   POINT3D_ID, X, Y, Z, R, G, B, ERROR, TRACK[] as (IMAGE_ID, POINT2D_IDX)
# Number of points: 399, mean track length: 3.4683954619124799
3810 1.3803063128331523 -1.5435044946335241 5.3435988334531705 136 118 142 1.7570970947973337 6 6651 7 6928 5 6715
3811 0.83714505290989405 -1.4715129010220158 5.2885879087738532 142 115 135 1.7563988931848249 7 5688 8 5428
14084 -2.1309762286507574 -1.8323307572429131 5.1723987485155947 128 110 134 1.667035979323898 2 8018 3 7757 1 6688
3815 0.23527726211266126 -1.3921233667586317 4.9693138472291825 134 85 104 0.098902159973863826 6 6658 7 6927
14088 -0.96574441610705863 -1.1098919958140567 4.9420219269172412 124 93 109 2.0378593338215358 4 8387 3 7769
3816 1.1115222332629939 -1.4549584208433151 5.3078498347315382 103 76 88 1.4068066194577598 6 6660 7 6941 5 6724 4 6862 1 4666
3818 -0.61726571665057794 -1.3897578865176401 5.0577516335858714 105 57 68 1.2002168760766174 6 6663 7 7699 8 7425
14091 -0.024086496426999157 -0.46065836390387632 5.0130779214003329 192 182 153 0.46007346356515477 4 8258 3 7788
3822 -1.5870085152276272 -1.393030245205221 5.3917787638281691 94 77 87 2.5656443617483662 7 7709 8 7415
14095 -1.5554811317382986 -0.16959192946129814 5.0745366663643914 107 89 109 1.8812406898786262 2 7919 3 7806
3826 -1.6251482839354543 -1.3626048275313167 5.3380376808077656 116 93 108 0.15921355930913123 8 6623 9 6424
3829 1.1238407704724334 -1.3304350562760325 5.3020039981544809 129 106 127 1.6897863543500544 6 6680 7 6971 8 6724 5 6747 4 6881 2 6633 3 6653
14102 -0.51637393659939856 0.443988378424926 4.7289379896733559 77 49 61 2.0587601101318436 3 7833 10 8565 1 6604
3830 1.557288772773904 -1.3385586695328557 5.3314223577331941 134 116 135 1.0162975036253596 6 6681 5 6744 4 6874 2 6618 3 6643 1 5601
14103 0.74250761188471226 0.58389309675664103 4.036397241860036 132 84 104 1.3581260537925028 2 7965 4 8323 3 7838 1 6618
3831 -1.4451561283440919 -1.3358331636053513 5.3263094496427907 129 97 113 0.79578779792100329 7 7717 9 7797
3834 -1.7750540837944937 -1.3301113740124402 5.3429096559208489 63 50 59 0.15413278692819224 8 7424 9 7325
14107 2.4172902677445949 0.73547691357107936 5.3064525272579308 72 59 69 1.0472509713467297 2 7970 3 7845 1 6748
3835 0.29718115757914737 -1.224952400262878 4.9219535765885229 83 46 54 1.1835919959521986 6 6690 7 7735 5 6756
14108 0.71103251146512458 0.70563649014803709 3.9919396228710271 134 86 109 1.2373700490091073 2 7979 3 7848 1 6747
3842 0.23702051206755706 -1.1775981074966229 4.9415574988813313 62 31 36 0.034361921104078499 6 6705 7 6985
14115 -2.3767846734748006 -1.8055952456635704 5.1978950590820761 114 97 119 1.5581976554067154 2 8100 3 7889 1 6774
3844 1.6330388333022849 -1.2262178026616488 5.3292577640434553 128 104 125 1.4554777302282407 6 6713 7 7002 5 6763 4 6890
14117 -2.8459301825264536 -1.6423800054846747 5.1289807039317372 36 44 65 1.6476139824933902 2 8023 3 7895 1 6693
3845 1.1982116968502459 -1.2000026477576911 5.3045569845409331 132 104 119 1.1445470633118167 6 6720 7 5852 5 6781 4 6903 2 6652 3 6673 8 5593
14118 -0.067845410680948029 -0.93319073385748241 4.9536290991169363 124 71 81 2.0363038372744464 4 8390 3 7906
3846 1.6070827392897415 -1.1994373002627836 5.3325783319918818 80 63 76 1.1725992844919415 6 6721 7 7010 5 6777 4 6895 2 6641 3 6664 1 5617
14119 -0.8506344689563835 -0.97435607285643133 4.9587091802434733 112 88 107 1.0591417024064489 2 8114 3 7910 1 6708
3850 1.2029271521588927 -1.170937475679521 5.3082431180205649 107 72 79 1.2404364005788793 6 6727 7 7008 5 6798 4 6913 2 6663 3 5773 8 6770 1 4753
14123 1.8506909862055407 -0.28603283132362201 5.3285500677113067 61 44 57 0.89917122149275708 2 8121 3 7925 1 6720
3852 0.70854128551200468 -1.1155463451578527 5.0070491153790693 108 62 72 1.3686319026017557 6 6729 7 7003 8 6767 5 6809
14125 -1.1577444648366972 0.021201939899459527 4.9947927138901651 99 50 59 1.296882454884607 3 7933 1 6811
3855 1.9328331515120913 -1.1858092615687112 5.3529535078874986 59 45 61 1.595021518987316 6 6733 5 6786 4 6894 2 6635 3 6659 1 4702
14128 -1.7437685941210976 0.089016056001861119 5.121718814971012 80 64 83 1.4656963052702041 2 8061 3 7937
3856 0.47719401146779117 -1.0963132267519495 5.0715393935662334 97 52 61 1.6359740139003747 6 6737 7 7755 8 7473 5 6818
3859 2.0208110437992293 -1.1124705204468182 5.3359391675825769 112 88 111 1.6655444920394231 6 6746 7 7039 8 5656
3861 -0.69603845484179439 -1.0579148498256745 5.0970509292894004 92 50 58 1.1439100074092312 6 6748 7 7005 8 6746
3862 -0.15628977556802029 -1.045307133636437 5.0407483372106725 120 68 75 0.073085467888693564 6 6749 7 7014
3865 0.45803272194893724 -1.0091545734612917 5.1247901551977897 72 45 52 1.129587673108041 6 6754 7 7767 5 6840
3867 1.7512719784232034 -1.0346211038251396 5.3346656751481119 140 114 133 1.4437771074644294 6 6756 7 7051 5 6828 4 6940 2 6677 3 6687 1 5635
14140 0.12373830170154093 -1.1538822170243745 4.8407810133495222 61 30 31 0.64399146439057087 2 8176 3 7987
3874 1.6893118113398806 -1.0034714771032729 5.3280555750877694 63 46 57 1.4952198640064169 6 6763 7 7062 5 6839 4 6948 2 6683 3 6690
14147 -0.2385021802172525 -1.1639310465016157 4.9158400991412465 42 20 23 1.5645000944999079 2 8179 3 8056 1 6910
3875 -0.70583539326554945 -0.96553603952311273 5.14918329446634 63 41 49 0.43047214069996059 6 6765 7 7766
14148 -0.2385021802172525 -1.1639310465016157 4.9158400991412465 42 20 23 1.5645000944999079 2 8180 3 8057 1 6911
3876 -1.9363757035730602 -0.99631600738924275 5.3584850123519718 118 102 128 1.0462193865404643 8 7469 9 7384 10 7857 11 7834
14149 -0.066503220754783002 -0.82569102874672062 4.9779394375033466 49 23 24 0.11427035257391935 2 8191 3 8058
3878 2.1677080326702645 -0.96922107769634136 5.3415970850986527 130 107 127 0.44754237045672274 6 6772 7 5958 8 5706
14151 1.6500984090191475 0.2894160080154391 5.2740412922818916 28 69 174 1.4408428550807102 4 8572 3 8072
3880 1.9585785542907135 -0.96766912664304616 5.3432554013478963 137 113 135 1.6852256006205659 6 6774 7 7067 5 7532 4 7569 2 7255 3 7220 1 6151
14153 0.73894055324497276 0.4247760399946604 4.7177107527563686 138 89 110 1.1308909340350819 2 8255 3 8076 1 6934
3887 0.029443071332067316 -0.85465774264292182 5.0198833141216346 54 24 24 2.1627014635067896 8 6818 5 6872 4 6982 7 7784 6 6783
14160 0.68049888717517149 -0.86848484677312332 5.0563306866842126 124 68 82 0.068157441184321987 2 8239 3 8108
3893 1.4171197540042548 -0.83960950666462997 5.3126570104713222 58 46 56 1.2652302696330453 6 6794 7 7081 8 6850 5 6874 4 6977 2 6724 3 6719 1 4841
14166 -0.34799023357742453 0.1458854040916181 4.8368752314403309 130 76 89 1.0893490926791363 2 8275 3 8135
3899 -0.63898771927485409 -0.67175476309276161 5.1336022909874082 85 61 76 0.48404752136809509 6 6816 7 7101 8 6854
14172 -1.4485506547359936 -1.0255336536503838 5.3011652848268023 60 51 59 2.280865600486409 9 7387 7 7758 10 7865 11 7855 8 6742
3900 2.1269603612507244 -0.69642871714104826 5.3418133101151994 126 105 123 1.829678845627664 6 6817 7 7115 8 5792 5 6895 4 6993 2 6735 3 6729 1 5674
14173 2.1292338397804453 -0.0047303469543204055 5.3128756804990704 47 34 42 2.2879204495185412 6 7011 5 7081 3 7618 2 7705 1 6268 4 7153
3902 1.5794080134721551 -0.67615969447253887 5.3075214603742529 70 59 71 1.2224490822714276 6 6820 7 7113 8 5786 5 5826 6 5771 4 5985
14175 -0.27763907772268581 0.40784232709014739 4.7904228561194104 80 51 60 1.8325408711808973 6 8355 7 8768 5 8376 4 8434 8 8481
3904 -2.252245326950443 -0.69570203812855336 5.4035397205103175 78 69 94 0.85292426942387634 8 7506 9 7428 10 8371 11 8413
14177 1.9354180389328026 -1.7729359965729203 5.3608825397963491 35 24 34 2.6403659407691289 2 3359 5 77 4 3519 3 3597 1 185
3911 1.9434656465911782 -0.64484318716986311 5.3228732296813668 122 101 120 1.3105374264680083 7 7124 8 5808 4 7598 2 7292 3 7249
3912 -2.2952048187023326 -0.66121227205353272 5.3954774923429785 121 103 128 1.9615587416144873 8 7515 11 8705 10 8374 9 7852
3915 0.1663325825481016 -0.59033992304593097 4.9902911821575628 68 28 32 1.4365789533994415 6 6838 7 7118 8 7547 5 6922
14188 -1.4348533674452359 -2.3312315232373737 5.2140013556878717 133 109 125 1.757769695875002 2 3441 3 596
3923 1.7022472218397777 -0.51823512926889159 5.3070057282420313 127 104 124 1.0277535629389427 6 6865 7 6106 8 4088 5 6939 4 7616 2 7305 3 6754 1 5702
3924 0.18502859574624911 -0.49383241078862999 5.00130113168591 128 70 82 0.8926079016155789 6 6866 7 7150 8 6909 5 6950
14197 -1.2568681089554192 -2.2158387136526501 5.2204008399547845 79 63 83 1.4400013565122896 2 3494 3 697
3925 1.8022293847922677 -0.51389948275112818 5.3183621232632472 126 104 118 1.6490277094062211 6 6867 7 6108 5 6940 4 7026 2 6768 8 5855 3 6755 1 4913 9 5703
14198 -1.2568681089554192 -2.2158387136526501 5.2204008399547845 79 63 83 1.4400013565122896 2 3495 3 698
3926 -0.74461904807903012 -0.49641192443768262 5.1212832939542965 112 61 70 1.2733028387724064 6 6868 7 7839 8 7559 5 6957
14199 -1.729904457280345 -2.2995812331890479 5.2124935594727191 99 73 89 1.5960958935232972 2 355 3 715
3927 -0.10919806164077261 -0.47609721190074777 4.990533307054684 108 76 53 0.88123881565326811 7 6094 5 7598 4 7629
14200 -1.729904457280345 -2.2995812331890479 5.2124935594727191 99 73 89 1.5960958935232972 2 356 3 716
3930 1.087102451472616 -0.46845609319944614 4.9485618576750081 146 96 115 0.5948004302060379 6 6875 7 7856
14203 -1.811733881119503 -2.2035641297645459 5.2013000210472766 88 67 82 1.5939739811756457 2 454 3 807
3932 -1.6810668032934808 -0.48779279985481039 5.3199527703827982 113 90 103 0.84990863997545019 6 6877 7 7845 8 7553 9 7472 10 8417
14205 -2.0304228076009965 -2.2351950929036017 5.2032960192765145 71 55 76 1.6363415441944449 2 3577 3 812
3937 0.23723229343759214 -0.41977819457182108 5.0007523524566952 132 80 92 0.64956039684719646 6 6888 7 7167 8 6928
14210 0.008060031690619163 -1.7012328810124535 4.8504759165799838 45 21 27 1.5245612898990126 2 3617 3 866
3938 -1.7537822303584845 -0.42986460090431461 5.3312652834983938 66 49 60 1.6213938720280483 6 6889 7 7858 8 7569 9 7888 10 8432 4 7068 11 8756 5 6979
14211 -2.1085172480951924 -2.1720351227387567 5.1968201453195189 95 66 81 1.485718997525157 2 539 3 876
3939 -0.48110928424962457 -0.40876491668704773 5.0257982371659073 109 73 90 0.22025283985417926 6 6890 7 7166
3940 1.0847910169695778 -0.39930023653076974 4.9315775084596263 137 83 97 0.15406082639395507 6 6891 7 7176
14213 -2.023440954155479 -2.1531684721933311 5.1997752009546465 131 112 132 1.4524983815461296 2 541 3 880
3948 2.2471861848065915 -0.32122694318206385 5.3503698081827897 127 101 124 1.2101002192765955 6 6905 5 6989 4 7064 2 7327 3 7283 1 6217
14221 -2.2033192389390615 -1.9411041866568697 5.1923071574022037 124 107 124 0.68163845533006273 2 723 3 1044
3952 0.8107458509068417 -0.29640964392817037 5.093248859542352 80 47 56 0.4045406521393542 6 6909 7 7890
14225 -2.034476242200943 -1.8799809188772187 5.1825393710585193 101 83 103 1.7709475337664227 2 3786 3 1064 1 863
3953 0.90115457184780345 -0.28923978596814065 5.0481399514867009 103 51 55 0.89199477269304284 6 6913 5 5955 4 4483 2 1800
14226 -2.3507380560966995 -1.9334869140728985 5.1868059228602625 128 109 135 0.87676078859422846 2 751 3 1074
3955 -1.761122447351531 -0.27998215442671898 5.3244926383595352 95 80 106 1.4166715182066978 6 6916 7 7187 8 7597 5 5984 9 7509 4 6174
3956 -1.1188542663848338 -0.27225654721734099 5.0641331203767512 110 60 66 0.68220380831490945 6 6917 7 7198 8 5917 4 7102
14229 -1.0877698382433916 -1.5078545749758188 5.1907284153131918 98 68 74 0.55557333356462157 2 924 3 1212
3958 0.93268577314240797 -0.25867722100991669 5.0432773910167557 101 51 53 1.2197991443994993 6 6921 7 7899 5 7009 4 6152 2 4426 8 7617
14231 -1.5595942570734576 -1.3089612531335468 5.1707580003204212 122 99 114 1.14976530798628 2 5756 3 1425 1 1132
3960 -2.03810075492818 -0.26890305071791104 5.3539558590839755 114 98 118 1.8191478127542529 6 6924 7 7196 8 7598 5 5993 9 7508 10 8011 11 8001
14233 -2.157472486822003 -0.49921307406631288 5.1484802565384182 68 62 84 2.662423320285229 2 4415 3 1972 1 1556
3961 0.13867391725831463 -0.24984217017802185 4.986600796013624 135 79 90 1.2210133943441281 6 6926 7 7213 8 5959 5 7014 4 6165 9 4102
3962 -2.0869632373058042 -0.26257581949334824 5.3599499033785927 117 99 115 1.5213836836306776 6 6927 7 7197 8 7600 5 5998 10 8013 9 7511 11 8499
14235 -1.9960914090617934 -0.49481230397549208 5.1797938335125906 47 35 57 1.1401911339884847 3 1974 1 1554
3964 -1.600387143960974 -0.25157898333422229 5.3006451072699567 90 70 95 0.9872192357977061 6 6929 7 7206 8 6959 5 5999 9 7517 10 8022 11 8011
14237 -1.7124741787631435 -0.09045510787008948 5.0996278836725555 110 96 113 2.1150535595138935 2 2176 3 2282
3969 0.99033400166013374 -0.22125053280910503 5.0490243630552509 96 48 48 1.5840862735073178 6 6940 7 7231 5 5996 4 6170 2 5962 3 2030 9 6901
3970 -0.51889825956690416 -0.22196989428008917 4.970701658557835 131 71 83 2.1934383733822198 6 6941 5 7025 4 6181 10 7445
3982 -1.2500773810069112 -0.18070142883302692 5.0903970337573208 49 20 23 1.311848121660673 6 6961 7 7239 8 6985 5 7039 4 7123
14255 -0.86585598739835901 0.34560604926630101 4.7226684852680485 136 92 109 1.2083614272385033 2 2521 3 2609
3983 -0.42783525261682043 -0.17769006683467453 4.9869044082120482 131 76 89 1.6795529127147666 6 6962 7 7244 8 6993 5 7035 9 5807
3988 1.3909620707254906 -0.15057735822325949 5.2665951800911586 134 103 119 0.9910286831392543 6 6971 7 7267
14261 -1.93409324544298 0.95280328270000958 4.2182593752793345 74 91 85 1.72939725609743 2 5209 3 3078
3989 1.5655783906647336 -0.15115278634867402 5.2899838602834697 138 114 128 1.8162706547490262 6 6972 7 6262 5 7040 4 7118 2 6853 3 6837 1 5018
14262 -1.7937004405506309 0.95247918505467966 4.2265085864825682 36 53 43 1.5286286826914961 2 3119 3 3088
4008 2.1591566141345848 -0.010696011133900172 5.3189372407538746 129 110 129 0.47392274493515862 6 7007 5 7075
14281 -1.609475739859533 -2.2927522357597954 5.2162625261031943 130 106 120 1.6407711763746002 2 5447 3 3703
4009 2.2045847891842287 -0.006243005794928781 5.3302095556425204 141 117 137 1.2486875606920911 6 7008 5 7079 3 7321 1 6266
14282 -1.6279218161550137 -2.2651905586721854 5.2073541071323115 89 75 92 1.3647953374043498 2 3518 3 3716
4011 -1.5055261893573275 -0.0042185509275214639 5.2775937476043735 105 82 96 0.65781507654619431 6 7013 7 7308 8 7651 9 7573 10 8085
14284 -1.7561078543216968 -2.2735063827381063 5.2146309481700879 129 101 115 1.5090231883895537 2 3528 3 3734
4012 -0.62048658835175141 -0.0073306137453268598 5.0898329382331795 50 27 33 0.67891197025719485 6 7016 7 7313 8 7046
14285 -1.5816301416142577 -2.1648142887027197 5.1994407794065101 86 68 87 1.1848925249991074 2 3563 3 3765
4013 -0.67446610644638483 -0.00046668789588714206 5.0963601831531458 115 58 69 0.89266849291349248 6 7017 7 7315 8 7048 5 7087
14286 2.2090521911009082 -1.4416955308486945 5.3742317948643725 135 106 128 1.616970652147699 4 3741 3 3775 1 3047
4018 -0.30261209587117888 0.028322653792997393 4.958960686296785 114 63 72 0.94404316141627487 6 7024 7 7324 8 7064
14291 0.1304364003859296 -1.650189466016162 4.8486647598501742 50 23 30 1.5398773953950993 2 5527 3 3828
4022 0.29267322657499423 0.050305646439041063 4.9703493992701162 134 76 88 2.3712267103615039 6 7032 7 7333 8 6118 1 3885
14295 -1.5071044842066412 -1.8212507313214672 5.1928770126899231 123 100 111 0.97541709142835098 2 5614 3 3946 1 3244
4038 -1.9990400654102509 0.18148180970390287 5.3098915871821344 122 109 134 1.5743429155746331 6 7060 7 7953 5 6170 8 7677
4046 0.44578150800711575 0.2030333071719892 4.9025951762229916 109 58 67 1.9145405821481871 6 7074 7 7383 5 7161
14319 0.85367399946625833 0.29765954317013793 4.8138597815290485 99 70 75 0.43652162935142363 2 4843 3 4882 1 2058
4054 -1.661474003600703 0.25361807851584717 5.2935421009281143 42 30 34 2.1096930365576996 6 7088 7 7399 8 7702 9 7991 10 8547
14327 -0.40074535439917552 0.42324124512595379 4.7261546072074481 73 48 59 1.3912005306004016 3 4964 10 5180 1 2176
4060 1.5539311660197497 0.28014146539829182 5.2800178676776799 127 100 116 1.3865030381414141 6 7098 5 7177 4 7229 2 6942 3 6179 1 5164
4064 0.56381690370350601 0.27701069773611697 4.8083441259149531 62 50 56 1.6986732395741009 6 7102 7 7407 5 7185 4 7232 3 6181 2 6151 1 3978
14337 -0.0098333655665348314 -1.7286450038155716 4.7950139416118462 119 65 74 1.3233147240018359 2 5506 3 5621
4066 -1.868016734916137 0.34964667870890465 5.3328229910646927 67 51 62 0.95128877360841246 8 7718 9 8004 10 8559
14339 0.21363698548510879 -1.6123971110257405 4.8467685635187943 48 22 27 1.2634681623696706 2 6600 3 5655
4068 2.2265541976407111 0.38310369950137879 5.318410460764964 128 105 124 1.7645156232555528 5 7742 4 7769 2 7449 3 7388 1 6337
14341 -2.187950899439064 -2.103156734286018 5.2052812804321622 99 82 101 1.2599508712571845 2 5551 3 5660
4069 0.18357349581514559 0.31627080800681512 4.810511499168963 139 92 112 1.6925790406623342 6 7109 7 7986 5 7195 4 7241
14342 -0.001002243178116204 -1.5973252459716374 4.8713082215545978 135 81 94 0.45472109388080728 2 6608 3 5675 1 4681
4072 -0.74415772683610171 0.31338739460605336 4.8094075304526172 139 85 98 1.5550343045021708 6 7112 7 7417 8 7139 5 7192 9 7081
14345 -1.6249481285181766 -1.7656421173208774 5.1740035703804033 122 96 119 0.97709715914508888 2 6631 3 5717 1 4726
4074 1.1511211339534435 0.35692699311617371 4.8218809915212919 91 55 67 0.7970117120471929 6 7116 4 7263
4075 -0.71355512436429547 0.34694072096555995 4.8083965591209594 141 90 107 0.92262574691792509 6 7118 7 7430 8 7156 5 7205
4080 -0.74796396374345053 0.34725845165130098 4.8081505932843029 91 60 77 1.2822175865993901 6 7123 7 7996 8 7724 5 7203 9 7091
14353 -2.0512621386735526 -0.70010650529597118 5.1089650764389241 123 105 130 1.6720203946583199 2 5894 3 5972
4082 -1.2359231688938628 0.35796967169013372 4.8200594935106933 122 76 90 1.4040241967946661 6 7127 7 7435 8 7728 9 7100 10 7628
14355 -0.41340949042255315 -0.032902154365103964 4.9532803853048168 126 73 89 1.0973957564103431 1 3862 3 6096 11 6346
4083 1.9005039596604369 0.45931100996865443 5.2984139289619838 135 114 126 0.86536921618653972 5 7239 4 7283 2 6993 3 6941 1 5917
14356 -0.47996166794193901 -0.02425955970247223 4.9192893443643575 126 73 89 1.2350482084054231 9 6958 10 7510
4084 -1.73033117439619 0.43281062700003647 5.2537464781307657 78 63 82 0.60786518609357831 6 7132 7 8006 8 7734
4086 0.064543909200312555 0.40091861041811017 4.7974199232265118 149 102 124 1.2251855350260876 6 7134 7 7443 5 7232 4 7273
4098 1.8305052058246434 0.66274025960583649 5.283090321094666 105 81 99 0.89261019626278626 5 7301 4 7802 2 7477 3 7414 1 6369
14371 -2.4134172762503554 -1.6773534529090155 5.1790717154780941 116 96 122 1.4390188357345082 2 6669 3 6677 1 4786
4099 1.5621542072717802 0.65804636884145007 5.2564103873972323 99 81 106 1.71874069082025 6 7181 5 7300 4 7341 2 7051 3 6983
14372 -0.10806669667361381 -0.60434486186979397 4.9648361104548506 50 24 27 0.030438498765484039 3 6765 1 4941
4128 2.1549849656906517 0.84688268560188429 5.3061730930919131 60 53 61 2.0092789302151695 5 7361 4 7842 2 7516 3 7448 1 6396
14401 -2.3906551847836162 -2.0997499423512469 5.1952002963870125 124 97 109 1.6431642664452319 2 7852 3 7537 1 6481
4129 2.1541550771937081 0.84757591713267311 5.3137283490070635 60 53 61 1.772538310564868 5 7362 4 7843 2 7517 3 7449
14402 0.18743071028035097 -1.4859933253855149 4.8075008598800721 48 23 26 1.662977737903806 2 7603 3 7543 1 6140
4132 -2.5165462776898946 0.82477535683788727 5.2826508414662641 65 49 66 2.2211701312432659 6 7238 7 7584
14405 -0.41288024709345922 -0.0085669505343502154 4.9537164990114331 123 71 83 2.6274174199825215 3 7625 10 8774 1 6289 11 8804
4136 -1.2937901784749404 0.75288130381502161 4.772358185272048 91 55 61 0.63258602998474045 6 7243 7 8075 8 7803
14409 0.046684445421210793 -1.3328946904178844 4.8033636307062926 119 71 82 2.5985377633928577 9 8327 3 7760
4137 -1.3674589727231501 0.77192025351752436 4.7785324109501062 96 59 67 0.58837935686770326 6 7246 7 7585 8 7807
14410 -0.76131142692640075 -0.15755354674730254 5.0560200953589067 52 18 20 1.4611190685092748 3 7804 1 6729
4159 0.46930061154618974 0.90477659289099088 3.7026492949529977 166 124 148 1.1506050460171373 6 7297 7 7642 5 7414 4 7442
4160 0.41104066626423796 0.93041156945124304 3.6950659313753076 82 48 52 1.5518283787598912 6 7301 7 7644 5 7417 4 7446 2 6459 3 6446
14433 -2.069647082952744 -1.1382772914263737 5.3735140597359354 114 99 125 0.89744262787205642 9 291 10 215 11 10
4164 0.83717782464112345 -1.8245587889816657 5.3277866375385177 103 67 79 0.31305056979648349 6 7319 7 7665 5 7430
14437 -1.2440883888904593 -1.2769824139733488 5.2728411913437068 117 89 104 2.3494802194568103 9 232 10 240 11 141
4173 1.5235565633305141 -1.6262456404004957 5.3351081610120561 134 114 133 1.9955935624588599 6 7348 7 7693 5 7448 4 7495
4174 0.82319311914264659 -1.5933448796840177 5.3204614343871723 148 117 136 0.59575626211184973 6 7350 7 7688 5 7455
4183 0.29649150129361374 -1.3970296671605638 4.9750512711012602 137 84 102 0.87011067328063463 6 7363 5 7891 7 7712
4187 -1.4750297561093151 -1.4066502743317866 5.3316697612927744 120 95 115 0.85713426884944721 7 7702 9 7789
4188 1.0265800598796313 -1.3655662209969075 5.2992447824840854 125 95 106 1.1946546386651846 6 7372 7 7729 5 7480 4 7535
4189 1.0265800598796313 -1.3655662209969075 5.2992447824840854 125 95 106 1.1946546386651846 6 7373 7 7730 5 7481 4 7536
4190 1.4355870394923489 -1.3677347261625108 5.2878326915706362 96 81 95 0.78503952521699905 6 7374 7 7732
14463 -2.3372269655672482 -1.0055123008106821 5.4102080648515214 110 98 120 1.3015174741261415 9 439 10 392 11 118
4191 0.74631275485116577 -1.2957283406465967 5.0721190319996161 145 113 134 1.677999502096287 6 7375 7 6966
14464 -2.1639528293586539 -1.0353562757994696 5.384774976917269 110 101 132 1.0745343914283108 9 425 10 393 11 3414
4194 -1.2320479178922341 -1.3327603275316591 5.292887952306824 135 104 119 2.3242356650423761 7 7718 10 8636 11 8666
14467 -2.0720660715516011 -1.0395102576337467 5.3731304838244505 63 51 77 0.50946393970903125 9 431 10 418 11 180
4199 -1.5803595464261457 -1.3386372994248275 5.2978560120259699 129 107 124 2.4307820883077991 8 7912 9 7793 10 8627
4224 -1.6800720719970648 -1.1519909491185019 5.3636102213989734 132 106 125 1.4210856847434816 6 7418 7 7745
14497 -1.0251331885972264 -1.1204731287634953 5.2364031168683436 69 41 53 1.9787888704711551 9 498 10 624 11 3631
4225 0.72764777598532271 -1.0621432954947752 5.0716488782528693 116 68 84 0.257668867396873 6 7425 7 7027
4226 0.040728054225931662 -1.017838330257308 5.0194038547372468 126 69 82 2.480380450895078 6 7429 7 7763 5 6837 4 6964
4239 0.1440950701013535 -0.73517244878368815 5.0025031999391265 125 68 79 1.8134423003107014 6 7453 7 7805 8 7518 5 6892
4240 0.60331622985425104 -0.73436774126097182 5.0783847468684717 55 29 32 1.848283760218296 6 7454 7 7809 8 7525 5 7555 4 6996 2 6749 3 6739 1 5691
14513 -2.1686418171352138 -0.90836730852492042 5.3880102688614615 81 69 98 1.7015493396840702 8 770 10 670 11 424
4241 -0.78232505929337059 -0.72619057554751443 5.0712526242960081 48 22 25 1.7476633292481807 5 7563 4 7005 2 7307
4250 -0.18393901401621901 -0.6574036876278424 5.0751756967272126 98 75 57 1.2138853584896694 6 7470 7 7825
4251 1.7684599860884358 -0.67140837508073747 5.3228164552500008 95 69 76 1.9102226197607139 6 7474 7 7831 8 7555 5 7946 4 7992 2 7647 3 7575 1 6510
14524 -2.3822542913633975 -0.84975067608020982 5.4134304751714071 97 78 102 1.1221489898868708 9 679 10 725 11 454
4255 -1.2055912164606146 -0.64792100316788992 5.3095949028109688 119 95 111 1.1008887981787132 6 7480 7 7108
4257 -2.0003021955398799 -0.55728328131278171 5.3579046165427036 120 100 120 1.7984638990968163 6 7489 7 8251 8 8237 9 8147 10 8699 11 8720
4258 0.14540092191595616 -0.50588560642191549 4.9809591481139801 124 67 74 1.6988678014459162 6 7490 5 6944 4 7041 3 5976 1 4957
4260 -0.44341143936057581 -0.497093393251829 5.0094744672013691 52 26 29 2.1482229716825398 6 7496 8 7562 5 7594 2 7329 4 7628 7 7840
4265 -1.6800142466898045 -0.52082924682812803 5.3163646177511614 52 40 53 1.2273286574634306 6 7501 7 7837 8 7993 9 7875 10 8711 11 8738
4266 0.22486751132945096 -0.49208983198993839 4.9936890438231512 56 31 34 2.1440766055365681 6 7502 7 7846 8 7570 5 7593 2 7323 4 7623 3 7278 1 5732
4267 -2.5339764377662251 -0.49387044581337264 5.429218903427504 114 96 118 1.7210139192574141 6 7506 11 8717
4270 -0.21812551449648784 -0.41378791794175829 4.9943282964408899 129 100 72 1.2209740964265445 6 7514 7 8272
4271 -2.1568430217812042 -0.44295241606731622 5.3853928722693336 77 58 74 1.6040679535752642 6 7515 7 7854 8 7999 10 8718 9 7883 9 8152 11 8743
14544 -2.3183777296425969 -0.82570400104669872 5.4039186680111815 82 62 82 0.66608506983751614 9 725 10 794 11 3646
4272 -0.73081652914913653 -0.41353819225535171 5.1137868240783497 122 69 79 1.4263532887323158 6 7516 7 7864 8 7577 5 7607 7 8271 4 7640
4273 0.54118830026669407 -0.41075483824450465 5.0948490154961821 135 83 96 1.7741647916980188 6 7517 7 7871 8 7588 5 7603 4 7633 2 6811 3 6791 9 7506
14546 -1.7389314407359553 -0.89689994787385774 5.3286952089623929 94 69 90 0.24130578936490368 9 702 10 813 11 628
4275 -2.2504003773479009 -0.40775239866780089 5.3674320088424441 119 98 121 1.1165707972029244 6 7519 7 7859 5 6986
4276 -1.832731042949417 -0.40029139792291524 5.3321253497591901 113 95 113 1.3022512967508983 6 7520 7 7862 8 8003 5 6983 9 7893 10 8722 11 8759
4280 0.19317875303559257 -0.37012527305775111 4.9957709959139693 121 68 80 0.93918557389522306 6 7525 7 7876 8 7594 5 7609
14553 -2.357068656762412 -0.7865075951445738 5.4099104610532853 132 117 143 0.88158541495787512 9 758 10 856 11 598
4281 -1.6610006489469606 -0.34593158429360504 5.3104857234823077 113 90 109 1.423229564614636 6 7527 7 8283 8 8014 5 7622
14554 -1.3154929621677518 -0.93243572006060138 5.281415837028459 69 54 72 0.72103822950988106 9 712 10 858 11 707
4282 2.1619899702593748 -0.33412078660764238 5.3459572110024469 128 106 127 0.97863405674518111 6 7528 5 7610 4 8020 2 7676 3 7593 1 6528
14555 -1.776468877788062 -0.86288108545455666 5.3383925069183995 126 99 114 1.6300562206778151 9 3550 10 867 11 673
4283 1.9349643150693365 -0.31904169369305885 5.3244080790577 136 113 129 0.93278486476548983 6 7531 7 7888 5 7615 4 7643 2 7331 3 7285 1 6225
4284 -0.17602889366384403 -0.30915479621876324 5.0165724635537732 93 63 46 1.6838365172850955 6 7532 7 8289 5 6994 4 6145
14557 -2.2551890979938101 -0.78346598019203173 5.3914242888860509 122 102 126 0.56046925849780183 9 771 10 888 11 3727
4285 -2.28172121558277 -0.32283725033932636 5.3876490676436859 121 101 125 2.2065802844405775 6 7533 10 8729 11 8764
14558 -2.2759028617847319 -0.778891209147484 5.3957521809366282 119 108 129 0.51352657936436297 9 772 10 891 11 642
4286 -0.38572547050501066 -0.29102467286726397 4.9989979904764503 119 73 91 1.2925645300223478 6 7535 7 7886 8 8025 5 7632 4 7660
4287 -1.5472320261138681 -0.28477335650479529 5.3002899390262757 93 74 88 0.37928860941797682 6 7538 7 7884 8 8022
4288 0.9817262786523141 -0.26215190176323205 5.0303804636729668 62 23 25 1.9798460968422635 6 7540 7 7898 5 7635 4 7084 2 6833 9 7535
4292 1.8953765275809025 -0.25673054359171998 5.3177246154777551 114 93 114 1.0980494669416734 6 7545 5 7638 2 7339
4294 0.14133483338432984 -0.2220258727321221 4.9810538910035156 135 77 93 1.7698013904657792 6 7549 7 7226 8 6983 5 7642 4 7104 2 6856 9 6886 3 6832 1 5024
4296 1.3654474343831426 -0.1753832609601233 5.2634680763974817 115 91 112 1.794032881568534 6 7552 7 7255
14569 -0.7432317182337046 -0.9526248122459553 5.0306779540873974 104 63 68 0.16898651271441925 9 3546 10 934
4297 0.4296811819356291 -0.15770517792140176 5.0774686906181552 66 38 49 1.0370029414252842 6 7555 7 7913 4 7674 2 7370 3 6853 1 5042
4298 1.8145240457523624 -0.15525470109233067 5.2805254126365702 128 103 121 1.429619091537633 6 7556 7 7914
14571 -1.5919104016109364 -0.84788583760811997 5.3108984394866798 62 47 61 0.40882765432557339 9 766 10 938 11 756
4299 1.8213431009186298 -0.15256422809125444 5.3072244121441008 128 103 121 0.79631657914585996 6 7557 5 7647 4 7671 3 7303 1 6247
14572 -1.7205496320467546 -0.81008193307067744 5.3185347570243504 103 73 86 0.29828190180655634 9 787 10 961 11 773
4300 -0.10470591321533129 -0.15394333939618521 4.8084489712872172 206 202 207 2.089881934714044 6 7558 7 7911 8 7625 5 7043 4 7129 2 6871 3 6061
4301 -1.1897990861454284 -0.14793959247200764 5.1015841247734359 62 32 39 1.1905850746641677 6 7559 7 7910 8 7624 5 7049 4 7139
4303 -2.2165024992161153 -0.11740681219119767 5.3739980840747981 125 115 139 2.2537088830295469 6 7562 5 7059 10 8754 9 7930 11 8790
14576 1.1592914818064661 -1.2152239257114164 5.0244076718693336 130 122 151 0.91273648696170562 9 728 10 987
4304 -2.5476376626064248 -0.11826360748481217 5.3828560725381145 84 80 94 0.067832739198154302 6 7563 7 8317
14577 -2.3662891615742163 -0.71331248180563145 5.4113283865275275 83 63 84 0.68417858322410174 9 832 10 991 11 737
4306 0.82579635536987173 -0.088848425950885379 5.0667126299536811 130 76 92 0.9712463160394994 6 7566 7 7289 5 8011
14579 -2.314072491415117 -0.71798034995551474 5.3994946920082114 128 111 133 0.59757585503731014 9 824 10 995 11 745
4307 1.1171340153211746 -0.081696371709955931 5.0143729396586663 63 26 30 1.6357575083560527 6 7567 5 7061 4 6239 2 4546
4308 -1.859218047144807 -0.09118802632921208 5.3093184772945126 50 39 45 2.2650791538344959 6 7569 7 8323 5 7065 10 8931 11 8965
14581 -1.4283395725596375 -0.82557397107359953 5.2849847472033247 134 113 131 0.95293825404964672 8 882 10 1008 11 854
4309 -1.823136252395434 -0.09051134593280237 5.3209066800187204 41 35 40 0.83089727622451148 6 7570 7 8324 8 8041 5 7663
14582 -1.2372478649818055 -0.84713659813338504 5.2712599610709754 100 70 85 1.9557850467011508 7 1166 10 1014 11 888
4311 -0.070988023776840298 -0.072993830522871367 4.8278152957072278 60 42 35 1.983373254631883 6 7573 7 7928 8 7032 5 7665
14584 -1.2882328713929152 -0.83444560863913719 5.2665316224580927 129 104 121 0.90131689559398076 9 807 10 1018 11 889
4312 2.1555354027578777 -0.051593881782763439 5.3290056438094329 131 110 126 1.1489938954696386 6 7574 3 7318 1 6257
14585 -2.3279022555858502 -0.70199918863246213 5.403245221300395 105 82 100 0.55201360736449301 9 849 10 1022 11 3802
4313 -1.7234086310810719 -0.063026529461193748 5.2996866158501366 114 90 105 0.64243428380642209 6 7575 7 7924 8 8045 9 7940
4314 1.0656868135633377 -0.057926971840931298 5.0599948207006387 79 45 54 0.3983623699454546 6 7576 7 7295
4315 1.1203785783712661 -0.03426421201205343 5.0107569061131967 76 48 58 1.4585152191129278 6 7577 7 7931 5 7666 4 7151 2 6037 3 2226
4317 -1.0714595334675754 -0.035359644326365208 5.1149581359844065 116 60 69 1.7570278308591527 6 7580 7 8332 5 7078
14590 1.2989401925975368 -1.1841230549618118 5.0125732930436149 127 112 131 0.85120948518021777 9 3566 10 1048
4318 0.51937302271000185 -0.025633497769590983 5.1140182650999817 108 76 97 1.1683508104361451 6 7582 7 7933
4319 0.84962152232245547 -0.017291265818421254 5.0921630438952512 126 68 80 1.3149951999964484 6 7584 7 7936 5 7671
4320 -0.96951117830901146 -0.014609503340323552 5.1069477428834782 117 61 67 0.53877117162880928 6 7586 7 7935 5 7673
14593 -2.3471657941322706 -0.67804699449212191 5.4110231989120665 124 111 137 0.64064209963050878 9 882 10 1065 11 3827
4321 0.77885918531771581 -0.0082141065473272257 5.0914144213635897 126 66 78 0.94229345877707815 6 7587 7 7316 5 7674 4 7695 2 6889
4322 0.28767669172716226 0.010618632746269879 4.9796287262802768 136 86 98 1.7428022511317383 6 7588 7 7942 5 7676 4 7698
14595 -1.9777296549139918 -0.71498610248131489 5.3560968827550699 96 72 98 0.5473229070118022 9 872 10 1073 11 887
4324 1.9807236888087525 0.03225055479623961 5.3079822169856357 138 106 119 1.0138536821274418 6 7590 5 7677 4 7701 3 7621
14597 -2.2177008035531287 -0.67697990648608508 5.3906935094502852 125 115 139 0.37353607636034941 9 900 10 1094 11 875
4325 2.2310106242675647 0.081105344684591935 5.3261486104777598 111 85 98 1.52002488970015 6 7594 5 7686 4 7710 2 7398 3 7335 1 6286
14598 -0.63162771169397625 -0.85841086783478893 5.0497859248569572 65 30 37 0.9597659492053312 9 823 10 1099 11 3934
4327 -2.1003023623809303 0.059448843181965111 5.3253357515524691 105 91 109 1.371432253034685 6 7596 7 7947 8 8059 5 7102
14600 -1.1398161996228167 -0.797522711240926 5.2421667027612271 130 107 129 1.0500070802252848 9 858 10 1108 11 1010
4328 -0.56395860127318675 0.083165523409139616 4.9981746803381908 83 38 42 1.0494778106642761 7 8347 5 7689
4331 1.5499458637789614 0.18909277607538139 5.2777671035886025 134 111 129 1.6299116250059829 6 7606 5 8035 4 8080 2 7726 3 7354 1 6308
4332 -2.2136039680583508 0.18645882285203508 5.3637127955435533 17 26 42 2.1269477561270342 7 8355 9 8387 10 8950 8 8311
4334 0.9801467476052057 0.18200796996856192 4.9120224060705073 151 95 116 1.8867440019984123 6 7614 7 7954
14607 -2.3475211620164766 -0.63796443669221947 5.4094419029192613 122 107 134 0.7366268221132185 9 943 10 1143 11 921
4335 0.97941857973310076 0.18682116334588816 4.9080124197303192 151 95 116 1.1407689588135259 6 7615 5 7145
14608 -0.063258803425973245 -0.90668954248000999 5.006244628932186 0 0 0 0.54370520983433179 3 1554 10 1149
4337 0.94366558216211938 0.20410443996818692 4.8903429422215847 58 33 42 1.8273521879826955 6 7620 5 7712 4 7738 2 7419 3 7361 1 6315
14610 -2.1995421768947976 -0.65172064208804981 5.3855405178127951 134 122 145 0.61289349150011152 9 940 10 1152 11 941
4338 1.1713238895100317 0.20859134499685428 4.9056878032460078 113 63 65 1.7662314444343903 6 7621 7 7961 5 7716
4340 -1.137307018629836 0.1996696719380088 4.9019278131221888 66 47 53 0.15924025269063835 7 8366 9 7975
4343 1.0031164069816023 0.21124980054144377 4.9019816824747355 92 58 62 1.1404787970001131 6 7631 7 7387 5 7715 4 7740 2 6926 3 6901
4347 -1.4516217242781218 0.23543986421292057 4.9017065276550129 124 77 95 2.1056625774069215 6 7642 7 8611
14620 -2.3251329614055698 -0.61397193179397391 5.4045066271356133 91 77 96 0.69633433243687914 9 989 10 1201 11 990
4348 -1.073953902718976 0.22677072899066747 4.8223871482248022 133 86 107 1.8573095439251521 6 7643 7 7972 8 8078 5 7166 9 7988 4 7211
14621 -2.3640577193009991 -0.60816922510447369 5.4139425436946915 133 121 146 1.8514553545222352 8 1154 10 1203 11 989
4349 -1.0153345250493404 0.22581575370688156 4.8182322335835197 133 85 107 1.4671100796669831 6 7644 7 7973 8 7703 5 7167 9 7986 4 7213
4351 2.2213470098165358 0.30744458414644776 5.3214111985857846 140 112 129 1.3572015684875798 6 7646 5 8054 4 8106 2 7748
14624 -1.5854963946942837 -0.68925334153585449 5.301512043322326 128 98 109 0.66880923377478385 9 955 10 1213 11 1077
4353 -2.4760416807929979 0.30642546867596759 5.3238740827527087 112 99 126 1.3726062733898989 6 7650 7 7979
14626 -2.1617324147256429 -0.61981202660121026 5.3766734530322955 98 79 99 0.32663695879349569 9 994 10 1218 11 1036
4354 -2.4760416807929979 0.30642546867596759 5.3238740827527087 112 99 126 1.3726062733898989 6 7651 7 7980
14627 -2.1913300256208013 -0.61397935015270655 5.3817547541999744 130 110 130 0.44927555084492338 9 1003 10 1225 11 1039
4355 0.95617171473451212 0.28462113452588789 4.8211243889535922 65 53 55 1.3255889640995118 6 7652 5 7731 4 7758 2 7443 7 7978 3 7379 1 6330
4356 -1.3303625363436835 0.27886816008899451 4.8132950242729464 34 34 36 2.0234672651477301 6 7653 7 7982 8 8080 9 7997 10 8550
14629 -2.1968992638192191 -0.60648066971054737 5.3842138678532132 89 70 86 0.54137006776936636 9 1014 10 1239 11 1054
4357 -0.92859134107689345 0.27736644237244062 4.8217220458742096 54 43 47 1.4091360042547321 6 7654 7 7981 8 7712 5 8053 9 7996
14630 -1.5956850950283881 -0.67161462743270817 5.3059859028181844 134 111 132 0.21693428607226392 9 986 10 1240 11 1113
4358 1.8150060750555406 0.37423431801238016 5.286089564318341 135 112 128 0.96861029483977035 6 7660 5 8057 4 8110 2 7754 3 7656 1 6595
14631 1.52760868533212 -1.0569645954028339 4.9768975493541445 140 121 142 0.37058382902527121 9 878 10 1242
4359 -1.3421862697633555 0.3155057542387148 4.8241575842615898 119 74 86 1.0989481097532254 6 7661 7 7989 5 7732
14632 1.3973783141056684 -1.0334311211053138 4.9945733137735022 152 135 154 0.14049489792804162 9 3652 10 1247
4362 -1.1242003322973129 0.31890741674361694 4.8134119754719515 130 77 95 1.051725377263476 6 7664 7 7992 8 8085 9 8000 10 8162
4364 -1.4336071215114001 0.35172338304180073 4.8225286807183352 46 39 41 0.45559079128186536 6 7669 7 8000 8 7727 9 7644
14637 -1.2638326412351359 -0.69670865235316337 5.2582518858120961 108 71 83 0.51388763829154227 9 987 10 1264 11 1167
4365 1.0002297126202544 0.36653787542401323 4.8148369015974497 106 74 96 1.3141716990920964 6 7670 7 7994 5 7749 4 7770 2 6976
4366 0.99985385536848692 0.36632057289626441 4.8135722638770657 106 74 96 1.4676891286230067 6 7671 7 7995 5 7750
4369 1.8228139692662078 0.4573560867738089 5.2773501448479792 128 100 117 1.354901273024276 6 7674 4 7778
4371 -2.2221877220463928 0.47722939841388612 5.2980772943369043 117 108 132 2.3285134037803532 6 7676 7 8015 8 8091
14644 -2.310569508759666 -0.56631887187690211 5.4002383378069991 85 71 93 0.63363522408486572 9 1092 10 1296 11 1111
4385 2.1195070690567119 0.65784486189470914 5.310057339428691 128 104 121 1.750695742074684 5 7769 4 7798 3 7415 1 6370
14658 -0.88834731815056167 -0.67789570734404636 5.0468373477593156 105 58 66 0.55410794929466145 9 3745 10 1351
4386 -1.3558867202617932 0.55614420489604111 4.7979796610178012 28 22 19 2.3441221398573484 6 7698 7 8401 8 8105 10 8203 9 8015
14659 -1.138993701183229 -0.66202100011744891 5.24159317633009 99 78 95 0.62748149670206033 9 1075 10 1356
4388 -0.15239498986125666 0.47682767665334747 3.741818392211115 82 41 45 0.87903755924168692 6 7706 7 8040 5 7295 4 7314
14661 0.87258251645680318 -0.89138841080194109 5.033013948206964 89 73 99 0.13773064305224608 9 988 10 1363
4390 -1.20875308338169 0.65407495953038108 4.7761983250842057 89 53 58 0.53638981633860272 6 7710 7 8053 8 8118
14663 -0.36836085814591973 -0.7113484806243684 4.9092716298696866 60 27 34 0.10161565708748721 9 5522 10 1387
4391 1.9118231477978789 0.76637726015566898 5.2985136958311232 94 81 106 1.1660866828265724 5 7789 4 8142 2 7788 3 7681 1 6633
14664 0.38223553090025475 -0.80201389713084048 4.9223062027226669 116 83 99 0.42654960244593221 9 1021 10 1388
4392 -1.2795649488174312 0.65687195218600847 4.777302137981783 95 52 61 0.59687885890367209 6 7713 7 8059 8 7787
4393 0.49161580610127847 0.52893839723432978 3.7719239086092839 76 40 43 1.1179649295135947 6 7714 7 8046 5 7777 4 7805
14666 -1.8163468800740643 -0.57103183484172093 5.3319239932990374 125 101 116 0.46414605435339062 9 1126 10 1397 11 1275
4394 1.6589204755436822 0.7596176519789587 5.2730298042321859 138 114 136 0.71574413374626711 5 7784 4 7819 2 7494 3 7430 1 6376
14667 -2.3130428999892416 -0.51654807997581764 5.4032368628679945 102 84 110 0.76984535868852288 8 1247 10 1412 11 1243
4396 0.25887826273121972 0.52814680260271307 3.7677660578166519 74 38 40 0.58125569394592447 6 7717 7 8049 5 7776
14669 -2.0128936172924252 -0.53838827232218223 5.3558734248307029 81 63 85 0.31207502006536669 9 1141 10 1429 11 1288
4400 1.6129143119185883 0.81869233946113829 5.2643999143643487 130 103 118 1.5070348914741007 6 7728 5 7351 4 7834 2 7508 3 7023
14673 -1.671001445623113 -0.55472285511984687 5.3072938709919901 124 100 114 0.32272619227289995 8 1239 10 1451 11 1335
4412 0.21424283614192194 0.66787334353090888 3.7704572570801789 95 70 85 1.4127494586480727 6 7750 7 8081 8 7801 5 8098 2 7504
14685 1.3314420350860559 -0.81267659653278379 4.9982370859973688 82 64 86 0.73437170138243557 9 1130 10 1533
4414 -0.34432327770036381 0.66852775277317111 3.7604797154378176 90 61 79 0.86410950385205576 6 7752 7 8088 8 7809
14687 -1.8667901682430501 -0.48232121929859306 5.3390957047939613 93 74 98 0.21384574120064503 9 1220 10 1563 11 1409
4417 -0.53241971066088944 0.70011793846419723 3.757997384813454 129 82 102 1.2656137261330154 6 7757 7 8102 8 7819
14690 -0.54152318271689115 -0.57193491659933393 4.9051589194001952 98 57 62 1.0804610659712661 9 1202 10 1585 11 1497
4418 0.32140754203202571 0.70277356391526813 3.7640839561336934 130 83 100 0.71890615887442877 6 7758 5 7816 7 8090
14691 1.2562612969435332 -0.76482570814303485 5.0239936124482103 124 105 126 2.3081615293232502 9 1172 10 1586 11 1551
4427 0.57871013025104756 0.76831390724385706 3.8496840752514427 158 114 137 0.72160502771517132 6 7771 7 6746
14700 -1.9381586610851578 -0.39472104952766118 5.3426627602182846 140 120 133 0.212707539069659 9 1311 10 1693 11 1598
4431 0.85713345153058762 0.90748069118086294 4.0802896405756748 173 128 157 1.802584249630705 6 7779 7 8116
14704 -2.1366213658534821 -0.35246619872753032 5.3738317523355494 92 73 86 0.35869551090561358 9 1355 10 1718 11 4257
4435 0.45413498549778564 0.92936242624651155 3.6947890404096499 92 48 55 1.7671244053068 6 7787 5 7418 4 7447 2 7159 7 7643
14708 -1.9678734649475964 -0.3393134036970285 5.3448247930922381 96 77 96 0.18672640708136565 9 1381 10 1763 11 1694
4437 -0.66749752545431085 0.92506947671719619 3.6823449447942957 72 40 44 0.46356786729560762 6 7789 7 7649 8 7375
14710 -1.8698789619194318 -0.34339595199904371 5.3324743453888814 97 77 90 0.40329594455815393 9 1382 10 1768 11 1708
4441 1.2141081600661849 -1.808137285955965 5.3267660564828514 150 126 148 1.4915619094678449 8 7408 4 7899 2 7570 3 7508 1 6105
14714 7.3413766127412297 -1.0971156005037612 6.0736195077147768 136 129 110 1.231360023193276 10 1780 11 1820
4444 0.056091460730911272 -1.5614540986371523 4.9006211482868807 47 24 27 0.042262057623215124 6 7818 7 8142
14717 -1.5544589533911108 -0.33998357869498913 5.2963889021309329 106 90 109 0.47647056788223113 9 1403 10 1807 11 1743
4448 1.7062940716086696 -1.5307758963199691 5.3414865197104691 144 120 140 1.7408162754589804 6 7832 5 7881 4 7915 2 7588 3 7524 1 6455
14721 -1.8903883449419716 -0.30625735650442315 5.3400729077639939 111 95 110 0.4326942738603447 9 1442 10 1824 11 1760
4454 -1.3299897768811648 -1.3193120099837934 5.2949538754669989 125 100 116 2.3119999093400838 7 8160 9 8098 10 8634
14727 -1.6772115519128252 -0.30731651729247622 5.3135353406405379 57 42 56 0.20216585689069075 9 1455 10 1849 11 4368
4460 1.3756061283449625 -1.1841481385982908 5.3204433506883531 72 64 76 1.340610908373888 6 7862 7 8191 5 7912 4 7952 2 7618 3 7555 8 7478 1 6487
14733 -2.354684334916803 -0.24413794360866409 5.4037299933645127 96 73 95 0.85946044600076965 9 1521 10 1882 11 4383
4461 -0.78986879522918807 -1.0139508400651938 5.0441294901935771 56 25 28 1.8347184417380011 5 7927 4 7580 9 7396
14734 -2.354684334916803 -0.24413794360866409 5.4037299933645127 96 73 95 0.85946044600076965 9 1522 10 1883 11 4384
4464 1.8960012748374597 -1.0571916485139825 5.3339491277566005 133 110 128 1.2144831615073086 6 7875 7 8202 8 7496
4465 -1.4521887938023332 -1.0434084415426577 5.3396024099294772 115 94 108 0.4980023756938845 6 7878 7 8193
4466 1.1493818228096582 -1.0189394943705128 5.3052589272638144 121 88 111 0.91639361654222729 6 7879 7 8201
14739 -2.0592079659134583 -0.24083415239527375 5.3618036283696444 130 106 120 0.23188960521313895 9 1549 10 1925 11 1882
4468 -0.85445389670222172 -0.82992496119066339 5.0577394078969142 131 77 90 0.39143796368780692 6 7881 7 8211
14741 -1.9584534123976438 -0.23179488191021405 5.3462277356568304 95 77 93 0.20451845254165554 9 1574 10 1955 11 4434
4473 -0.9813190598168996 -0.76087654969697005 5.0026490640903045 129 78 90 0.24445675445796367 6 7886 7 7795
4475 -0.28011354316814768 -0.75554227847630262 5.0317497984179411 42 16 19 1.8735124880076437 6 7889 7 8216 5 7553 4 7593 8 7514
14748 -1.9159389381279672 -0.21768471296309375 5.3416590971758833 104 90 112 0.25401234373268372 9 1595 10 1982 11 1950
4481 -0.7443636480445206 -0.6829872464108806 5.0853234161624199 78 55 63 1.528664816337481 5 7569 4 7607 2 7312
14754 -1.2156112532699193 -0.21026351449207206 5.0428760611419454 93 53 61 0.012422919661047334 9 4085 10 2035
4491 1.4844018770866734 -0.45662029107778768 5.2968402760389042 148 128 148 1.4493325013255998 6 7920 7 7869 5 7964 4 8010 2 7670 3 7591 1 6210
4556 0.0051980888804932729 0.56146780784519168 3.7792219901244635 118 71 87 1.6988134181830865 6 8050 7 8412 4 7807 2 7480 8 8116 3 7404
14829 -1.565662923160309 -0.012452846407282777 5.2868499608924244 103 80 98 0.67391535893613297 9 1933 10 2336 11 2390
4563 0.121857470235558 0.62362406374453083 3.7726866841045408 129 83 100 1.1905125750463152 6 8063 7 8421 5 8094
4564 -0.43452292812017274 0.69880635953726422 3.759524349596167 130 81 101 1.1824890723386374 7 8436 8 8146 6 8070
4572 2.3936138618329488 1.1115724414459511 5.2069137282344924 20 22 37 1.6565217090239845 4 8180 2 7998 4 8354 3 7700
14845 -1.4125714087298389 0.013701729397726523 5.2791836252391677 82 73 84 1.3610606943943828 8 1922 10 2390 11 2457
4575 0.47342461194416741 0.84887433888406449 3.7516960725299384 139 86 104 0.85099086333232887 6 8087 7 8455 5 8117 4 8173
14848 -2.0013476682458369 0.028031990776874075 5.3514225491090626 103 77 87 0.38692499455905799 9 1993 10 2404 11 4748
4583 1.4400647221474037 -1.525781043928734 5.3202727328527981 129 114 133 1.6352883961952471 6 8114 7 8152 5 8143 3 7529
14856 -0.34050122905656222 0.02376601744993943 4.8729718700309776 66 36 48 2.040651468406081 9 2025 10 2420
4590 -1.2352769822708292 -1.4176799644646807 5.3169064059777895 139 108 122 1.2105841192710045 7 8695 9 8312
14863 -1.6451943411627139 0.045812399277891214 5.3042243954857184 50 36 51 1.2424918309894279 9 2042 10 2439 11 2509
4594 0.6678629014850459 -1.0989969612117301 5.0394769421733505 47 24 30 0.0032657353443609478 6 8132 7 8528
4596 1.8047294697214213 -1.1390663497931062 5.3380134044770386 136 109 124 1.0265626020382339 6 8135 5 8326 2 8020
14869 -2.0483467785602238 0.072768365806267998 5.3586060389746955 83 77 92 0.53124031070583555 9 2065 10 2476 11 4813
4598 -0.096216188805047356 -1.0448823906700346 5.0283974195176988 68 32 32 2.2762797883116983 6 8139 8 8418 5 8170 7 8706
4608 0.53004148812202168 -0.64878663189569385 5.1139644173296244 129 73 84 0.51745977459013071 6 8159 7 8550 8 8239 5 8189
4609 -2.0968074729498842 -0.63767739754716724 5.3732752515390079 110 87 115 1.1292124787807254 6 8160 7 8717 8 8425
4610 1.7835085929026573 -0.52767051295588785 5.3105967100412936 101 74 90 1.056168793433977 6 8162 7 8262 5 8196
4611 -0.079826381223752657 -0.42885899297830415 5.0031259669231227 106 76 51 1.2106082279527879 6 8168 7 8269
4612 -0.016805462995551912 -0.42004203749556218 5.0210209323056043 211 202 174 1.3214571886864985 6 8169 7 8557 5 8346
4613 -0.50956990598070773 -0.40097054735293136 5.0255008327283228 103 70 91 1.8230739398216587 6 8170 7 8731 8 8257
4614 1.5817033897239083 -0.39678673971621636 5.2950389184686006 135 114 129 1.3715946734140518 6 8171 7 8285 5 8208 4 8259 2 7894 8 8023
4616 -0.4281325500653595 -0.30033592313553042 4.9955782748539503 126 70 81 0.9942585636500102 6 8178 7 8565 8 8267 5 7989 4 8034 2 7692
4617 1.1081481065359662 -0.22036651352255257 5.01667781784111 68 31 30 1.3651962737694336 6 8179 7 8573 5 7993 4 8037 2 7349 8 8277 3 7302 1 5777
14890 -2.0830614841843214 0.12054230747355042 5.3596679277267878 92 74 88 0.90049419101116224 9 2134 10 2539 11 2617
4618 1.5884144902406556 -0.16469884519812764 5.2623318857519541 134 106 121 1.489314943634459 6 8180 7 8577
4619 1.5884144902406556 -0.16469884519812764 5.2623318857519541 134 106 121 1.489314943634459 6 8181 7 8578
14892 -1.8099617071593024 0.12646864682888623 5.3204643595197894 102 81 93 0.30103459218299294 9 2140 10 2546 11 2618
4620 -0.43432358884029443 -0.15902015583960524 4.9918002538988322 117 61 72 1.1729193772802669 6 8182 7 8574 5 8003 4 8047
