# 3D point list with one line of data per point:
#   POINT3D_ID, X, Y, Z, R, G, B, ERROR, TRACK[] as (IMAGE_ID, POINT2D_IDX)
# Number of points: 309, mean track length: 4.6596251760372658
1959 -1.6877660856285086 2.9999832344498105 3.3145523948500482 121 113 100 0.72003689904766144 8 6756 38 6186 1 6106 6 6038 35 7818 37 6225 5 6292
1958 -0.66255481102619396 2.9140835945991967 3.2727769937936801 80 79 75 1.2681474729407936 8 6754 38 6184 1 6102 19 6153 6 6037 13 6281 35 7958 37 6223 5 6293 18 5877 10 5607 12 5973 3 6175 41 5814 28 4819 30 7630 27 5485 14 5382 15 5517 36 6524
1957 1.8981735658471952 2.8301565558194444 3.5617415844505742 132 122 110 1.2255596891583327 8 6753 38 6246 1 6172 37 6089
1956 -0.70997350968468054 2.7858283019267813 3.3509292148510776 179 172 156 1.1089071436758231 8 6752 38 6053 1 5974 6 6030 13 6280 35 7810 37 6220 5 6291 18 5872 32 8089 12 5970 3 6174 41 5663 4 6364 28 4817 30 7595 27 5458
1955 1.2081143771727463 2.656307198404944 3.1171455592934025 157 147 135 0.73843714254898385 8 6749 38 6045 1 5965 6 6032 5 6297 10 5680 14 5453 15 5579
1954 0.95171350077492556 2.6550540313100206 3.0274116899170123 134 133 126 1.417372028650882 8 6748 38 6044 1 5964 19 6042 6 6031 13 6188 35 7803 37 6217 5 6389 32 8094 3 6183 18 5875 26 5197
1953 -0.86811032958708223 2.5799045233860425 3.4428358848100808 178 141 123 1.5751386824901181 8 6746 38 6172 1 6090 6 6024 13 6278 35 7941 37 6211 5 6283 18 5863 12 5966 28 4813
1952 -1.4401191574726531 2.5510939984901788 3.5927096169555259 106 106 101 2.0096055242708672 8 6745 38 6175 1 6093 6 6021 13 6276 35 7798 37 6207
1951 1.2284234793282718 2.5484509755172069 3.1589323332485688 111 103 92 1.3033337724925298 8 6744 38 6169 1 6087 6 5891 13 6058 37 6082 5 6164 18 5833 10 5598 32 7759 12 5612 3 5893 41 5683 17 5723 26 5165 14 5449 15 5574 20 5280
1950 -1.8916719801424751 2.5082021486596053 3.4501756744752847 112 109 102 1.8046441554290917 8 6743 38 6174 6 6019 35 7797 37 6208 5 6137
1949 2.1255785052477094 2.4974175104334204 3.6732230724727839 129 113 90 1.4794153553909168 8 6741 38 6041 1 5957 6 6023 13 5866 35 7561 37 6073 5 6290 10 5679 14 5504
1948 2.2956081667794543 2.4762823190559899 3.8248023763716308 50 38 34 1.3007468338519057 8 6740 38 6168 1 5961 6 6111 35 7793 5 6384 10 5773 32 8078 3 6241 41 5891 14 5531 15 5680
1947 2.2948811958454907 2.4747694842617314 3.8179592063901615 50 38 34 1.3741978980253693 8 6739 38 6167 6 6110 13 6049 35 7792 37 6200 5 6383 10 5772 32 8077 14 5530 15 5679
1946 1.7415200850412069 2.4580888382023338 3.4566522076778883 157 139 116 0.9107868257262941 8 6738 38 6166 1 6086 19 6041 6 6022 13 6182 35 7794 37 6201 5 6289 18 5871 32 8085 12 5754 3 6073 41 5816 26 5195 29 5870
1945 2.5610626201154623 2.4357708521768417 3.9282893689849363 71 62 52 1.7016789148506763 8 6737 38 6039 1 5956 6 6016 13 6045 35 7788 37 6072 5 6286
1944 -0.32103671636040476 2.243143391126059 3.1622695372185268 198 177 157 1.5658176010683595 8 6734 13 6179 35 7784 18 5820 26 5153 28 4733 38 6034 30 7521 27 5449
1943 -0.7269966097367444 2.1896853650899191 3.4703803832008355 156 152 142 1.1297043168809089 8 6733 38 6037 1 5953 6 6011 13 6266 35 7928 18 5859 27 5448
1942 -1.648134596514347 1.9826207619976954 3.3747866697977389 47 50 57 1.7158008965122491 8 6732 6 5867 13 6165 35 7532 5 6122 3 6035 4 6313 2 6044
1941 -0.61052656536207139 1.9417619983311734 3.6588806971160208 35 36 31 1.1646362753148523 8 6731 32 8060 12 5953 3 6161 41 5871 4 6767 17 5856 18 5896 30 7603 11 5942 40 5930 9 6067
1940 -1.320917552275136 1.9020445080882886 3.5261317950403064 83 85 84 1.3047020221508026 8 6728 6 6003 13 6262 37 6190 18 5853 4 6682
1939 -0.68815643191380194 1.8556105668048934 3.5912582610150263 85 86 81 1.2997568962902863 8 6726 38 6154 1 6077 13 6157 35 7767 18 5854 28 4816
1938 -0.67717725357738223 1.871718485911714 3.5283582087585561 85 86 81 1.3448180750102814 8 6725 38 6153 1 6076
1937 -1.4026224558245588 1.8156077900307037 3.5174044851192687 38 43 46 1.3472706524755533 8 6724 6 5998 13 6258 37 6188 5 6265 32 8057 3 6159 41 5785 4 6680
1936 3.3250268349759748 1.4424277235282943 5.5012146042299612 47 49 44 1.6430894066781492 8 6723 38 5829 1 4939 6 6144 35 8019 13 6251 37 6315
1935 3.1947555266826133 0.74842379878553478 6.5097688845298212 215 210 187 1.099704650369401 8 6714 38 6011 1 5927 6 5974 13 6139 37 6156
1934 0.89542393193320524 4.2784023654963574 3.10012975647509 60 47 38 0.34889847497948412 8 6692 38 6122
1933 1.954148200984507 4.4279537514228924 3.8018349450979834 32 34 29 1.6528686131368606 8 6688 38 6217 1 6138 36 6632
1932 1.2532954880748164 4.2509238095280875 3.4981239829578157 38 31 23 0.43901078324536497 8 6681 38 6111 1 6133
1931 2.410314458015542 4.2766743152941045 3.7655947690565594 45 42 38 1.4500154461010506 8 6678 38 6105 1 6031 35 7653
1930 2.237506427247411 4.280319329401741 3.7195690167285034 30 31 26 1.2521332160864469 8 6677 38 6208 1 6132 35 7655 37 5731 36 6629
1929 0.44083895667954026 4.1651680839701033 3.3389362033068672 26 28 23 1.0358323345986411 8 6675 38 6212 1 6033 6 5951 37 6140 36 6444
1926 2.7056240936414926 4.1231836901333994 3.6713993266788414 37 39 38 0.675567089385401 8 6669 38 6094
1925 -0.60776631218874633 4.0670170006593303 3.4401909789970921 35 34 29 1.4005411217473065 8 6668 38 6116 1 6032 35 7660 37 6139 5 6028 10 5632 32 7805
1924 0.99696217759192673 3.9778029823629777 3.2555616648965047 26 23 16 1.1181574393115057 8 6667 38 6097 10 5637
1923 2.5572666098747399 4.0455102464618786 3.6665313664368995 187 152 130 1.3076731505304438 8 6666 38 6088 1 6014 35 7638 36 6543
1922 1.7314902412083368 3.8611067368989396 3.4111709105071748 25 22 23 0.62907189108735573 8 6662 38 6085 1 6011 19 6079 35 7318 36 6537
1920 1.2244812342238904 3.7651439289953204 3.3844502764617879 138 120 105 0.8977560071935794 8 6659 38 6083 1 6009 6 5758 35 7631 37 5969 10 5524 31 6259 36 6429
1919 0.08894580856804879 3.6217922783191643 3.3063410535398408 240 206 179 1.0945552290859162 8 6655 38 6198 1 6007 6 5750 13 6108 35 7628 37 5966 5 5774 28 4587 31 6287
1918 2.2741560805823604 3.6323270036410049 3.5290126537617557 155 122 103 0.9602636284611803 8 6654 38 6076 1 6116 35 7612 10 5621 36 6528 34 6290
1917 0.82825938940851263 3.587531212955303 3.2924844905915807 210 171 143 1.0414339147054748 8 6653 38 5928 1 6002 19 6072 6 5488 13 5938 35 7616 37 5316
1916 2.4970513835696706 3.6269925427313532 3.5513961785263 27 29 24 1.4746838511573179 8 6652 38 6073 1 5997 6 5922 35 7610 37 5955 36 6408
1914 0.99590165585459789 3.4899323796364197 3.2846940269994045 207 167 134 1.5116284405832552 8 6648 38 6074 13 5934 35 7609 1 6240 31 6282
1913 0.18740059446284918 3.4833968681474707 3.2532383527701696 228 187 159 0.43295858207999266 8 6644 38 6077 1 5996 18 5843
1912 -0.79022514384532272 3.46559687769679 3.258892394865764 88 76 60 1.2453013753030129 8 6643 38 6197 1 6119 19 6162 6 5917 13 6217 37 6117 5 6177 18 5886 32 7788 28 4775 30 7546 14 5298 36 6545 34 6410
1911 0.18703635784226169 3.2079143814349984 2.9887722868201476 240 205 173 1.2934233129478989 8 6637 38 6063 1 6107 19 6111 35 7274 13 5642 31 6275 36 6519 34 6387
1910 0.50704253619304562 3.1694034481517557 2.9433071591194127 113 97 82 1.3095010959116589 8 6636 38 6060 19 6059 6 5732 37 5695 5 5764 10 5503 27 5347 18 5779 26 5142 14 5303 31 6246 36 6395 34 6270
1909 2.5699972936216464 3.204670154274075 3.6211938686740939 52 52 44 1.595437386969768 8 6635 38 5898 1 5825 10 5611 14 5399 36 5937
1908 -0.68103764578617998 3.1583030165015784 3.2031852708768782 123 109 101 0.98786702577763175 8 6634 38 6064 1 5987 19 6112 6 5905 13 6210 35 7600 37 6108 5 6168 18 5839 10 5498 32 7778 12 5789 3 5897 41 5520 4 5663 28 4781 30 7551 27 5466 14 5294 31 6248 36 6416
1907 -0.85875953482831924 3.1506317258655892 3.2179220140936837 212 190 166 1.4910484381271534 8 6633 38 6065 1 6108 19 6157 6 5461 13 6082 37 5689 5 5324 18 5773 32 6995 30 7418 12 5382 14 4487 36 6615
1906 0.91054068183672643 3.0623965832168643 2.9656320852208871 202 181 154 1.6530256812259556 8 6629 38 6056 1 5977 6 5469 13 5914 35 7593 37 5683 10 5610 31 6241 36 6221
1905 -0.83541351954329601 3.0698676714396402 3.2205365596848736 76 72 65 1.1184907634192114 8 6628 38 6062 1 5984 19 6109 6 5902 13 6079 35 7598 37 6104 5 6166 18 5838 32 7766 12 5781 3 5890 41 5514 4 6074 28 4721 30 7547 27 5463
1904 0.97900303780316489 3.0108573760300676 2.989927395559663 116 99 81 0.95073572320655675 8 6626 38 6054 19 5938
1903 2.1240468868092921 2.9695412434518422 3.4652247413680302 185 145 119 1.4630924734754411 8 6625 38 6051 1 5976 35 7584 37 5930 12 5620 19 6054 11 4930
1902 2.1189885142970599 2.9701233646639227 3.4578021511916179 185 145 119 1.2333239662461584 8 6624 38 6050 1 5975 19 6053 6 5725 35 7583 37 5929 15 4996 5 5742 36 6389
1901 -1.6602350127800658 2.91708609925365 3.357398083338003 66 63 56 1.7602975503084999 8 6622 38 6061 1 5979 6 5894 35 7589 37 6100 5 5985 32 7751 3 5866 4 6041 14 5279 15 5405 33 5130 20 4982
1900 0.033741957835636327 2.8908329368800985 2.8315155547176967 166 149 133 0.89646520469738122 8 6620 38 6178 1 6095 19 6146
1899 1.3328142508988616 2.8120032878041341 3.1434597775648476 158 140 120 1.3347282501194759 8 6618 38 6048 1 5971 19 6048 6 5897 13 5890 35 7582 37 5927 5 6004 18 5770 10 5604 26 5135 14 5385 31 6204 36 6213
1897 2.8116717512323062 2.6381407419315512 3.8548961384189755 59 58 53 1.2639726595581227 8 6613 38 5876 1 5802
1896 -0.53944495745601495 2.5464024264496521 3.255388934762605 198 189 187 1.3656535120624267 8 6609 38 5881 1 5969 6 6026 13 6277 37 6213 18 5868 27 5452
1895 1.9830855428099117 2.5167701102663727 3.5536976675754968 76 59 38 0.96713964576861156 8 6608 38 5862 1 5793 13 5564 35 7219 37 5907 5 5986 32 7431 12 4897 3 5619 41 5253 29 5664
1894 0.64105970769870169 2.5359529332402122 2.8436905727170347 162 152 140 1.6406325723829269 8 6607 38 6042 6 5705 13 5884 35 7227 37 5642 12 5354 19 5907 26 5164 18 5762 25 5275 30 7405 27 5203 11 5427 36 5363
1893 0.20283481315251708 2.5362270879657758 2.827383459777999 164 166 165 0.2707371902199166 8 6606 38 5864 1 5491
1892 2.4522088134364415 2.4616633230043692 3.8702474640833167 45 33 29 1.2102014533133263 8 6604 38 5861 1 5795 6 5883 37 5901 5 6151 32 7731 3 5867 41 5666 4 6372 29 5687 16 6276
1891 0.4835747087986435 2.4692634120704531 2.8583478082380007 96 93 89 1.605315760151417 8 6602 38 6038 1 5954 19 6036 6 5888 35 7565 37 6084 5 6158 10 5596 3 5896 32 7467 41 5280 4 6106 26 5194 14 5377 11 5419 2 5815 40 5404 7 4815
1890 -1.6717745602327581 2.3684396112387271 3.500710077818086 144 140 128 1.2603800995133418 8 6600 6 5409 13 5865 35 7214 37 5618 5 5187
1889 2.6833265888579545 2.3199848524014337 4.0153215138362519 138 130 111 1.7295164158081671 8 6599 38 5849 6 5880 13 5857 35 7553 37 5889 5 6148 32 7722 12 5286 3 6061 41 5660 4 6561 11 5319 29 5800 40 5661 2 6086 7 5488 16 6457 23 6087 24 7304 39 7074
1888 -0.22677547106336299 2.1553876557359435 3.1404625882599109 82 78 75 1.2113831477975672 8 6590 38 6032 1 5941 6 5879 13 6176 35 7548 1 5767 37 6071 5 6138 18 5818 32 7945 12 5885 3 6059 41 5657 4 6360 17 5828 28 4827 30 7611 27 5447 25 5401 11 5843 2 5761 33 5646
1887 -0.22143948935190599 2.0017669831911951 3.1809785292137867 68 58 51 1.5497303656869825 8 6584 38 6024 1 5933 6 6007 13 6169 35 7774 37 6195 5 6273 18 5857 12 5963 3 6053 4 6352 28 4829 30 7636 25 5403 2 5755
1886 -1.4260969203100786 1.9284895467197509 3.4802591550340853 107 107 105 1.3003383347061435 8 6583 6 5864 13 6163 35 7531 5 6119 3 5814
1884 -1.507333019323595 1.9235564226074697 3.4352125383908403 43 45 48 1.6431422239895868 8 6581 35 7172 37 5872 5 5936 32 7368 3 5815
1882 2.1709977166345178 1.7311254676444736 4.4157718221849169 68 71 66 0.2137581073347293 8 6578 38 5513 1 5458
1881 -1.2465041509233685 1.8349435556697575 3.5479476826867384 48 52 55 1.7630162683319281 8 6576 6 5861 13 6155 35 7525 37 6056 5 6116 32 7918 3 6027 41 5787 4 6524 2 6266 7 5615 40 5925 16 6253
1880 0.11056095777850036 1.7616261163798692 3.3104226027695201 85 84 78 1.4435719569047822 8 6572 38 5822 1 5747 35 7520 37 6186 6 5999 13 6027 18 5806 28 4799 30 7578
1879 3.4644292921784734 1.2397002973306688 5.8056157163348736 248 240 221 0.59895102650863918 8 6567 38 5823 1 5756
1878 3.2203035916138516 0.91795797546976976 6.4276074589782963 58 52 51 0.97096742475887698 8 6565 38 6017 6 5827 13 6008 37 6014 12 5822
1877 3.4762619279021569 0.99929129901380553 5.9727327805152486 133 125 120 0.45057758246934232 8 6563 38 6014 1 5928 37 6018
1876 3.2054572217050574 0.37125946865285347 6.5380212889381903 173 167 145 0.74085550696375013 8 6550 38 5800
1875 2.2530605719407686 4.381845642793821 3.7482546966976913 214 168 142 1.5370192746237241 8 6526 38 6114 1 6037 35 7357 12 3601
1874 2.2591261930497386 4.3876331946319995 3.7756755683603727 214 168 142 1.2568343263622768 8 6525 38 6113 1 6036 35 7356
1873 2.721697975245966 4.2131061347336498 3.7156153477926579 135 103 78 0.82321190880469075 8 6519 38 6099 35 6901
1872 1.2543715819643297 4.1521401624045291 3.4105029997748475 135 114 96 1.7107579335566243 8 6518 38 6107 1 6027 10 5398 6 5190
1871 1.2715984046941335 4.1604533977658908 3.4589626587597744 135 114 96 0.76425417773197568 8 6517 38 6106 1 6026
1870 1.6164720189769182 4.045083740322073 3.4713796528418839 32 27 22 1.5659956985046348 8 6509 38 5950 6 5180 37 4850 10 5389
1869 2.3277379744565225 4.0664074712184215 3.6476727928266448 35 30 20 1.3021862611921662 8 6507 38 6093 1 6016 36 6433
1867 1.5478134867289304 4.0298796787252957 3.4565830722517488 154 116 90 0.93462994561360913 8 6505 38 6095 1 6018 6 5519
1866 -0.85010120157385505 3.9922175895032592 3.4471776977644386 104 95 80 0.76187164072783031 8 6501 38 6110 1 6028 35 7654
1865 -0.7769460636618698 3.9542838503049844 3.4375203831796979 70 62 49 1.177116393755953 8 6500 38 6108 1 6022 6 5508 35 7336 37 5733 5 5779 10 5369 32 6326 3 4649 41 4330
1864 0.0026008118166603901 3.9616866870981289 3.4925289846466829 151 138 122 1.0973251690226902 8 6499 38 6104 1 6021 6 5511 35 7329 36 6443 34 6321
1863 -1.6469563816111217 3.8889626673050004 3.2564404883153784 132 117 96 1.5650785527231119 8 6498 38 5960 6 5507 35 6914 10 5138
1862 -1.6731910286767371 3.8991851415279668 3.3258680242488747 132 117 96 1.3526279683798514 8 6497 38 5959
1861 0.88273126128074919 3.9036191760400811 3.3053526499470283 102 99 90 0.51567489263626798 8 6496 38 5947 1 5630 6 5770 31 6171
1860 -0.77099921771894608 3.8954051205850897 3.4465237686162062 178 163 142 1.661350487891659 8 6493 38 5956 1 5875 6 5153 13 5716 35 6892 35 7328 37 5358 5 4773 10 5140 3 2165 28 4079 36 6449
1859 2.623758760379034 3.9086082115219472 3.6431878805675524 38 32 26 1.6242474618848433 8 6492 38 5935 1 5868 35 6855 37 5714 36 5998 34 5829
1858 -0.57362901904152264 3.8601970256503635 3.431626591732051 190 171 149 0.27495851105412122 8 6491 38 6100 1 6017
1857 2.456639746217717 3.8314847014665343 3.5926604243937517 40 34 26 1.7265004744236996 8 6490 38 5933 1 5861 6 5500 35 6845 37 5318 36 6262
1856 0.57677930133319333 3.7392558599109877 3.4056540055780582 168 130 104 0.99336486219976261 8 6489 38 5943 1 5863 19 5978 6 5496 35 7312 37 5722 5 5400 31 6225 36 6275 34 6095
1855 2.3616832996425074 3.6738463392445539 3.5390255412171054 29 28 23 1.1559944222001779 8 6488 38 5922 1 5851 6 5752 35 7293 37 5704 36 5971
1854 -1.6447018240461813 3.6074176949898735 3.2019647221481149 81 69 53 1.8165763153496164 8 6487 38 6090 1 5867 6 5749 13 6120 35 7317 37 5975 10 5113 14 4916
1853 -1.6342033769872273 3.5992012073839388 3.1925764172863396 81 69 53 1.92217161682562 8 6486 38 6089 1 5866 6 5748 35 7316 37 5974 5 5759 10 5112 32 7043 3 5252 41 4873 14 4915 15 5017 20 3877 21 2324
1852 -0.69282741928089631 3.5094555434360379 3.2616631195385333 188 172 147 1.2352614179202464 8 6485 38 6082 1 6005 19 6124 6 5481 13 6106 35 7615 18 5781 10 5104 31 6258 36 6548 34 6311
1851 -1.641955317475146 3.4619343156318774 3.1985358029602962 93 87 73 1.2542642577037035 8 6482 38 5937 1 5854 6 5737 35 7299 37 5967 5 5750 10 5099 32 7510 3 5635 14 4893 15 4660 20 3859 21 88
1850 1.0705881211694301 3.4606275267654292 3.2414503127731691 188 157 127 1.0431530284597819 8 6481 38 6069 1 5993 6 5483 35 6820 37 5303 18 5710 10 5114 36 6409 34 6067
1849 -1.3275403548801996 3.461068957053004 3.2602447868312128 125 116 101 0.97335985258449509 8 6480 38 5934 1 5853 5 5751
1848 -0.23500341470261774 3.3361363228435463 3.2247652787962027 191 173 148 1.7822214413418864 8 6476 38 5918 1 5840 19 6065 6 5085 13 6090 35 7604 37 5702 18 5697 10 4689 12 5793 28 4665 30 7514 14 3992 31 6214 36 6420 34 6080
1847 2.692848334710598 3.3097292589980811 3.6364999424120548 30 29 23 1.7404936604160812 8 6474 38 5906 1 5829 6 5078 35 7267 37 5261 12 4958 36 5944
1845 1.1818280675551762 3.2480983083918913 3.1473599276678645 193 173 148 1.3076091787179012 8 6472 38 5910 1 5826 19 6060 1 5985 18 5578 10 5509 31 6209 36 6234 34 5778
1844 1.7639274255418667 3.2326733555659435 3.4733939605850566 41 36 29 0.24431838248574236 8 6471 38 5905 1 5554
1843 2.2673807359687919 3.1996176228144786 3.4997198354404633 57 52 48 1.4288306524286689 8 6468 38 5899 1 5824 6 5468 35 7261 37 5673 5 5760
1842 1.314822485563691 3.1630091607671589 3.1774680680295946 76 59 42 1.3322645687517829 8 6467 38 5902 1 5821 19 5942 13 4617 35 6774 37 5277 18 5567 10 5502 31 6133 36 6224 34 6052
1841 -1.4894078939718132 3.1064928855686356 3.2738433875812167 122 116 104 0.43990732888304285 8 6465 38 5914 37 5945
1840 -1.1698390604415847 3.0532323768064322 3.3398377295173645 109 102 92 0.95190673246188062 8 6460 38 5912 1 5828 6 5727 6 5900 13 6074 35 7595 37 6226 18 5836 10 5330 32 7762 12 5775 3 5881 41 5504 4 6061 14 5286 15 5247 36 6263
1839 -1.3902605568417199 3.0518869274007963 3.3206152650927683 102 94 81 1.2441028103380758 8 6459 38 5913 1 5827 6 5726 13 6076 35 7594 37 5936 5 5994 10 5329 32 7462 12 5776 3 5616 41 5245 4 6058 14 5121
1838 2.0807596858369886 3.0365561699801282 3.4939143070499639 37 34 27 1.8268900335723153 8 6457 38 5893 1 5816 19 5941 6 5459 14 5389 10 5496 36 5447
1837 -0.58129494874216747 2.9475096346532874 3.2656908369036528 103 100 97 0.98233586471703471 8 6455 38 5606 6 5448 13 5907 35 6753 37 5665 5 5716 18 5672 32 7466 12 5630 3 5205 41 5252 4 5641 28 4648 30 7505 27 5399 15 4968
1836 -0.57233868392735543 2.9449593573375217 3.2459309136554624 103 100 97 1.9508293567182471 8 6454 38 5605 19 5940 15 4967
1835 -1.4006420448323247 2.9366910010185716 3.3519861374670836 93 89 80 1.6631323859304854 8 6453 38 5907 1 5819 6 5715 13 6071 35 7590 10 5318 32 7755 3 5871 41 5498 4 6357 15 5236 11 5850 20 4986 21 4543
1833 -1.7661812738810156 2.9074718519199978 3.3264735055853634 70 65 61 2.046305229885871 8 6451 38 5908 1 5818 6 5443 35 7252 37 5933 10 5039 32 7445 4 6040 15 4949 33 5132 20 4713
1832 2.0875476599918708 2.8756370398852686 3.4606536941516186 140 119 98 0.83839277227849762 8 6450 38 5886 1 5810 6 5717 5 5734
1831 2.0872322155092435 2.879965886412891 3.4708420007254177 140 119 98 1.6486696339150497 8 6449 38 5887 1 5811 6 5716 5 5733 3 5244 41 5285 36 6220 20 4792 15 4989 21 4781
1830 -0.59971259982425706 2.8227162228701452 3.2994922522120742 195 191 181 0.6987447936424912 8 6447 38 5141 1 5057 1 5813 6 5708 13 5895 35 7246 37 5654 5 5704 18 5666 32 7450 12 5616 3 4530 41 4802 4 4898 28 4647 30 7506 27 5326
1829 -0.98148464209668385 2.8168513411909433 3.3772654010090637 115 109 103 0.87610064729247084 8 6446 38 5602 1 5535 6 5707 13 6067 37 5928 5 5983 18 5763 32 7749 12 5766 3 5605 41 5497 4 6047 28 4715 27 5435
1828 -1.8400010244150884 2.5823037630808088 3.4648104542907787 80 77 71 1.9439403399750088 8 6440 38 5890 1 5808 6 5695 35 7231 37 5635 5 5664 32 7409
1827 -1.8368102572269007 2.5804395555849209 3.4604783260900009 80 77 71 1.7126875027294788 8 6439 38 5889 1 5807 6 5694 37 5634 5 5663 32 7408 3 5582
1826 0.63506691540664117 2.6001146902755532 2.8557847957706226 178 166 150 1.1860496190723815 8 6438 38 5560 1 5789 19 5914 6 5437 13 5587 35 6711 37 5650 5 5998 10 5296 32 7484 12 4949 3 5909 41 5690 4 6405 26 5128 14 5112 2 5825
1825 -1.2415658485973822 2.5344579463170951 3.6106596317056261 127 121 109 1.7414874483343732 8 6436 38 5885 6 4266 13 5877 35 7570 18 5749
1824 -1.5992041255886513 2.5215977567585441 3.6157100281242616 101 103 100 0.78204344593671626 8 6434 6 5687 13 6055 35 7223 37 5911 5 5655
1823 0.62917420297163673 2.4526936086439615 2.9032568107337693 148 145 138 1.4894591112636375 8 6430 38 5547 1 5484 6 5700 13 5571 35 6696 37 5632 5 5989 10 5462 32 7457 12 5617 3 5894 41 5685 26 5125 18 5760 14 5276 15 5514 11 4957 2 6120 40 5694 7 5516
1822 2.0524362724579039 2.4006113544607026 3.6530590524638269 102 86 63 1.325310948568678 8 6428 38 5851 1 5786 6 5686 35 6671 5 5980 10 5593 26 4942 14 5373
1821 -0.84832591049530603 2.3894052194077036 3.3589188385669599 77 72 66 0.82817461592733499 8 6427 38 5873 1 5797 13 6050 35 7216
1819 0.055942627333542674 2.3683724567997935 2.976677523925169 130 127 122 1.2728272306446229 8 6421 38 5856 6 5691 13 5869 5 5685 18 5753 14 4816
1818 0.061054983934807759 2.3721615164210688 2.975287030436411 130 127 122 1.3285170648576323 8 6420 38 5855 1 5782 19 5904 13 5868 35 7215 37 5625 6 5690 5 5684 18 5752 32 6933 12 5335 3 5190 4 4955 28 4686 30 7465 36 6203
1817 -0.66393211554140641 2.3332061812941953 3.4199906319727642 192 191 189 1.0947683380721169 8 6419 38 5867 1 5493 6 5681 13 6046 35 7554 5 5960 18 5746 28 4779 41 5470 27 5425
1816 -0.020954098813771426 2.3517790245859636 3.0180067470263827 204 196 185 1.2159057940977742 8 6418 38 5850 1 5781 19 5903 13 6051 35 7556 37 6076 18 5825 12 5764 28 4797 30 7573 27 5427 25 5383 11 5661 33 5186 9 5038
1815 1.2045726368676495 2.3063986318985323 3.3439468491216866 181 183 182 0.41608480768646 8 6417 38 5844 1 5774
1814 1.6512307184354864 2.1537869290238829 3.5049904079280263 66 59 49 1.6129519048494245 8 6411 38 5532 6 5672 5 5966 13 5519 18 5644 14 5367
1813 0.46267216576426973 2.2020608191069715 2.9692035975327338 131 127 117 1.5521766607687371 8 6410 38 5530 1 4943 19 4897 13 5539 35 6651 18 5747 20 4733
1812 1.2524378614805447 2.1520637280290273 3.39593077462562 175 179 180 1.2486541283960206 8 6408 38 5531 1 5467 19 5900 6 5673 13 6036 35 7544 37 5890 5 5965 18 5821 32 7728 12 5749 3 5859 41 5491 4 6368 17 5776 26 5157 11 5836 29 5740 2 6100 40 5364 7 5193 9 5489 24 7328 33 5641
1811 -1.7536474483258344 2.1352938671078698 3.3316139639404305 58 57 63 2.4571571898193461 8 6406 38 5857 1 5777 35 7196
1808 1.1577513265390382 1.9998557040031351 3.7238754909232785 19 19 17 1.3433090242199999 8 6399 38 5837 1 5938 6 5659 13 5838 35 7179 37 5579 18 5744 12 5266
1807 -1.465292413955894 1.9808389900047805 3.4774916023592715 121 117 110 1.8553983388265824 8 6398 6 5656 13 6032 35 7535 37 5876 5 5940 3 5076 32 6824 4 5507
1806 0.41027656209647534 2.005944939702911 3.1491836268825013 16 21 24 1.7203119484770126 8 6397 38 5517 1 5450 6 5875 32 7939 4 6362 41 5659 17 5603 12 5297 11 5842 35 7925 2 5774 40 5849 9 5796
1805 0.34876311483611633 1.9749207848589745 3.2090616902956657 158 158 158 1.1811148626948216 8 6396 38 5514 1 5448 26 5105
1804 -0.019491897091291975 1.8830884865880944 3.1633104110685695 58 57 53 1.2840918400997017 8 6391 38 5511 1 5441 6 5380 13 5043 35 5655 37 5143 5 5628 18 5730 32 6864 12 5278 3 5578 41 5204 4 5591 17 5701 28 4682 30 7364 25 5303 11 4859 2 5251 33 3211
1802 -1.1778046052344175 1.5845682127819565 3.7810021120432205 40 44 43 1.390510490040836 8 6374 35 7509 18 5722
1801 3.5830574511416482 1.2286718400618251 5.7207234228286286 228 220 201 1.1207661189465936 8 6373 38 5505 1 5445 6 5619 13 5790 35 7129 37 5821 12 5483
1800 3.3936107243960021 1.0406965478816779 6.0542964360312874 216 203 195 0.79952177686802084 8 6368 38 5821 1 5750 6 5610 37 5812 12 5690
1799 3.5655753093181164 0.60261001810447001 5.9533200945534226 247 247 235 1.5578305323594603 8 6343 38 5794 1 5735 6 5590 19 5894 13 5996 37 6008 12 5818
1798 3.5707317594225332 0.52452021406388416 6.1705036220493552 160 152 132 1.3915364032474531 8 6341 38 5796 6 5582 13 5759 37 5779
1797 3.0456643108958423 -0.18453279122072749 7.018079597552787 252 239 210 0.5057573229862864 8 6318 38 5457 1 5729
1796 2.4576254343470496 4.4194671542868109 3.7943426858691871 43 36 27 0.7377314370978858 8 6289 38 5731
1795 2.5257770751406712 4.4378661505679435 3.9661327668825588 43 36 27 2.5402129136098446 8 6288 38 5730 13 5338
1794 2.6731538484284667 4.2887292854452923 3.7268854051707812 41 38 25 2.1642348205831325 8 6280 38 5715 6 5202 35 6158
1793 1.6536249739927813 4.2164344607032138 3.5112011299381618 154 128 105 1.7671185698050473 8 6277 38 5723 1 5662 6 5199
1792 0.7026229150173795 4.1453446857654992 3.2175072742259769 160 139 116 0.94838786335662417 8 6275 38 5725 1 5661 6 4601 35 6183 36 6302
1791 2.0507855065198695 4.2403928681816998 3.6814031694559288 175 148 126 2.1236307755882939 8 6272 38 5719 1 5660 36 6039 34 5860
1790 1.8272657128259431 4.1927768793982727 3.6200137792852045 21 26 24 1.5619696152386295 8 6267 38 5714 1 5878 35 6908 37 5364 6 5530 10 5402
1789 0.64628529254985867 4.0593642058680715 3.1943852083164028 50 44 37 0.98335917755621749 8 6266 38 5718 1 5651 6 5781 35 7342 37 5993
1788 -0.078583361629736864 4.0900058258537273 3.394692747727158 72 69 62 1.3778512685611972 8 6265 38 5962 1 5882 6 5522 35 7350 37 5739 5 5806
1787 -0.0771540322412166 4.0894554171194732 3.3965455434523739 72 69 62 1.3092277430860055 8 6264 38 5961 1 5881 6 5521 35 7349 37 5738 5 5805 32 7085 28 4568
1786 -1.0944735084314616 4.0619763204595536 3.3714431568231893 132 124 109 1.6278531127012039 8 6259 38 5971 1 5886 6 5175 35 6928 37 5391 5 5406 32 6355 10 5153 3 4663 41 3430 4 2020
1785 -0.72620015094397472 4.0656445534177728 3.4386222789891114 48 47 42 1.5710986719974613 8 6257 38 5735 6 5772 35 6922 5 6024 10 5379 37 5992
1784 1.3691271957320468 4.0263358173541333 3.3997783658139249 117 83 55 1.0990985206594877 8 6253 38 5949 1 5874 35 6893 37 5359 6 5182 36 6281 34 6096
1782 0.53430226410440174 4.0068462048339555 3.383836001237142 45 34 30 0.95722282614437604 8 6250 38 5710 1 5649 35 7334
1781 0.4798626524356166 4.0043948722628198 3.4289311489480281 46 38 31 0.78387730417257873 8 6248 38 5954 1 5877 6 5170 35 7333 36 6050
1780 -0.48938844028902523 3.9834659734207865 3.4395249352005965 172 160 136 1.2877375038205996 8 6245 38 5724 1 5654 6 5164 35 6906 37 5369 10 4791
1779 2.8205860316961728 4.0189657871470565 3.6506339196392474 57 45 30 0.12068527712368346 8 6244 38 5686
1778 2.7433941872901766 4.0222062323660586 3.6666576586337594 45 44 26 2.1340258951966136 8 6243 38 5685 6 4573 35 6093 34 5837
1777 -1.5180202826271414 3.9349093309747007 3.2888083935559194 125 110 91 1.7130387825565989 8 6241 38 5963 1 5657 6 5162 35 6918
1776 -1.5814570757286754 3.9180808886525638 3.2583643950340284 190 175 152 1.8841477480567168 8 6240 38 5727 1 5655 6 5160 35 6915 37 5387 5 4778 32 5073 3 2168
1775 -0.3796784180009975 3.909538884069558 3.4472280055184128 203 183 158 1.3179135908669777 8 6239 38 5709 1 5647 35 6133 36 6061 34 5871
1774 0.36442863194506314 3.8934808987418412 3.4387631394851068 211 172 148 1.2322188913910217 8 6237 38 5698 1 5638 6 5503 35 6879 37 5345 5 5412 31 6178 36 6036 34 3667
1773 2.26831752124796 3.8786255630020827 3.5908602143364159 34 30 21 1.0515535854892097 8 6235 38 5936 1 5865 35 6856 36 6267 34 6089
1772 -0.20925310302386438 3.8319335114997561 3.3640727671387625 194 178 154 1.2013252183854388 8 6234 38 5702 1 5634 6 4549 35 6878 37 4843 5 3873 10 4772 31 6180
1771 2.3867081416673299 3.874050518862358 3.5968982998835224 63 52 42 1.352366813758987 8 6233 38 5672 35 6070 37 4808
1770 1.1713087431876605 3.8237625869875074 3.3677365745789745 57 51 40 1.2861737629870651 8 6231 38 5676 1 5620 19 5981 6 5157 35 6864 37 5330 10 5375 31 6165 36 6007
1769 -1.3178717673632256 3.7919463798357529 3.2793249572114318 145 128 108 1.7426530076490105 8 6230 38 5952 1 5872 6 5499 37 4860 35 6126 5 3839 5 5773
1768 -0.95783668988726789 3.7728259918772804 3.3578256176085493 166 150 125 1.0575219041518245 8 6229 38 5703 1 5635 6 5132 13 5704 35 6875 37 5347 5 4755 32 5006 3 2133
1767 0.040976815708445767 3.7602594085019825 3.3819645987429108 83 74 65 1.0614151226255515 8 6227 38 5690 1 5622 6 5497 35 6863 37 5332 28 4446 31 6170 36 6290 34 5850
1766 2.1334759599540996 3.7774821590429952 3.5236389575682825 144 122 101 1.3034565842433818 8 6226 38 5667 1 5605 6 5148 35 6053 37 5319 10 5376 36 6261
1765 0.6304672282317797 3.7332616456758969 3.3766798991111089 250 210 184 1.5499129301258894 8 6225 38 5673 1 5612 35 6853 37 4819 10 5136 5 4797 32 6317 31 6163
1764 2.2561161043917339 3.7340096254302075 3.5409378210621525 33 35 24 1.1937205897142915 8 6223 38 5658 1 5593 6 5498 35 6839 37 5314 12 4454 36 5977 34 5387
1763 2.158222599281959 3.7288467684012248 3.5386262713999534 33 26 20 1.2790933565927436 8 6222 38 5657 1 5592 6 5495 35 6035 10 5371
1762 -1.78089850627774 3.6490092949754152 3.1440998270639295 134 122 106 2.0884997360970852 8 6221 38 5700 1 5625 13 5721 35 6873
1761 1.0885284731083964 3.6889401225039773 3.4209838642279058 25 26 20 0.83336901006831587 8 6220 38 5932 1 5855 19 6075 35 6840 31 6223 36 6268
1760 -0.42556651826149966 3.6550860488189851 3.2977822729526616 192 172 148 1.2985421123888572 8 6218 38 5678 1 5862 19 6077 6 4513 35 6851 37 4828 13 5683 10 4734 31 6226 36 6286 34 6098
1759 -0.54610812502631279 3.6546327245896313 3.2627362641727573 90 72 60 1.3868757282346584 8 6217 38 5683 1 5614 6 5126 13 5316 35 6073 37 5331 5 4757 10 4732 32 5014 3 2167 14 4575 31 6166 19 5975 36 6287 34 5845
1758 -0.60370661314648866 3.6569803104213201 3.2927568349436491 193 171 147 0.94465288392522451 8 6216 38 5684 1 5615 19 5856 35 7310 31 6080 36 6292 34 6105
1757 2.0461030432564349 3.6684653072541833 3.4878725032947622 42 42 38 0.50589809183532564 8 6214 38 5654 1 5590 36 5527
1756 2.1638975362733235 3.6596686505854858 3.5127404645251126 162 136 115 0.65756808036369163 8 6213 38 5649 1 5585 35 6829 36 5976 34 5807
1755 -1.2068292789989739 3.6182312295832597 3.2652826992512791 171 154 136 1.2562751440166651 8 6212 38 5946 1 5864 19 6078 6 5485 13 5952 35 6859 37 5726 5 5763 10 5117 18 5709 32 7037 3 4622 41 4882 14 4925 34 6113
1754 -0.50020061631440071 3.6182810296427146 3.2698269774180138 150 134 118 1.0169837550123351 8 6211 38 5675 1 5610 6 5123 13 5682 35 6058 18 5592 10 4727 32 5004 28 4134 19 5973 31 6162 36 6028 34 5844
1753 -1.1089965519225313 3.5929524052481905 3.2677427279586682 197 183 156 1.2899629967574906 8 6209 38 5682 1 5611 19 5974 6 5115 13 5689 35 6848 37 5327 5 5372 10 4131 18 5588 32 6283 3 3687 36 6299 34 5852
1752 -0.81520196214280893 3.5835284004759851 3.2853820782390293 203 167 133 0.39997417478695063 8 6208 38 5942 1 5858 35 7305
1751 -0.81366688166333512 3.5800131143800069 3.2873146567876641 203 167 133 1.078561173892014 8 6207 38 5941 1 5857 6 5113 18 5706 10 4716 14 4026
1750 1.5239391759216689 3.5754896543456423 3.3265207515333808 39 36 27 1.5003655580375415 8 6204 38 5646 1 5583 19 5831 6 5486 35 6826 31 5895
1749 0.67504310134331125 3.5619955579589049 3.2739945937899737 214 173 145 1.4390935120516102 8 6202 38 5926 1 5850 19 6070 6 5120 35 7296 5 3862 31 6256
1748 -1.6126400576626632 3.5312505888273678 3.1824761473813767 152 139 122 1.3922382879333148 8 6200 38 5679 1 5608 6 5111 35 6847 37 5724 5 5358 32 6274
1747 -1.407245030991106 3.5243232859540905 3.2235072177887334 119 106 85 1.1869206662302727 8 6199 38 5674 1 5601 6 5107 35 6842 37 5325 5 5360 32 4948 3 3674 36 6298
1746 -1.8143909561985725 3.5017391674023761 3.1402019032405253 122 118 107 1.4441573060520805 8 6198 38 5677 1 5606 6 5106 35 6846 37 5329 5 5355 10 4704 32 6273
1745 -1.4530357954683932 3.4908790053640368 3.2169876408298368 174 163 145 1.4181299863531531 8 6196 38 5938 1 5595 6 5478 35 7300 37 5720 5 5354 10 4703 12 5410 32 7518 3 3666 36 6295 34 5447
1744 1.9895600046311077 3.5036907047029029 3.442121738957435 199 168 144 1.237078088035412 8 6195 38 5639 1 5575 35 5995 37 4754 10 5363 14 4963
1743 0.074108928794654236 3.4791217197879738 3.2345086276507677 206 170 144 0.93293833761044864 8 6192 38 5925 1 5846 19 5963 36 6427 10 5355
1742 2.7094703040459169 3.4963283670542613 3.5946741760632572 30 26 15 0.71416960095201476 8 6191 38 5634 1 5137
1741 1.9952008732246287 3.4424321178045227 3.4183824306409298 27 19 12 1.2266106539672239 8 6189 38 5633 1 5571 6 5104 35 5978 10 5359 14 4962 36 5486
1740 1.9955235980069639 3.4423830098284722 3.4162226606861803 27 19 12 1.218104959926483 8 6188 38 5632 1 5570 6 5103 10 5358 14 4961 36 5485
1739 -0.080460827738447371 3.4125027613585761 3.2053320458888099 190 170 146 1.3937438442513403 8 6187 38 5921 1 5843 6 5099 13 5935 35 7287 37 5706 18 5703 10 4701 32 6272 28 4577 19 6066 30 7326 14 4020 31 6215
1738 1.5062725387752782 3.3982232009351043 3.3942786342916014 148 121 101 1.3364829682654416 8 6186 38 5637 19 5958 6 5098 35 6804 18 5587 10 4113 14 4587 31 6145
1737 -1.682220889317025 3.3677715860414117 3.1994608420690813 105 99 87 1.0379330753792537 8 6185 38 5930 1 5848 6 5476 35 6824 37 5709 5 5738 10 5090 32 7013 3 5230 14 4886 15 4998 21 3399
1736 -1.6830393889258504 3.3656197565355117 3.193279194445561 105 99 87 1.253026438117389 8 6184 38 5929 1 5847 35 6823 10 5089 32 7012
1735 1.6557911555371509 3.3772253204873497 3.4405990995116738 68 65 58 1.2129471479894463 8 6182 38 5630 1 5564 13 5636 35 6801 18 5705
1734 1.4847707124776126 3.3900778057853556 3.5364536401532978 41 32 23 0.28782261607329657 8 6181 38 5636 1 5569
22487 -0.20185158675497161 1.2941335202014055 4.2559160737228225 126 128 125 1.4606047050136699 6 5838 5 6245 32 8130 3 6220 41 5920 11 6078 33 6223 16 6727 7 5859 40 6049 9 6214 24 7731 23 6342 39 7772
1733 -1.6320534539673468 3.3401473822815779 3.2119186324635907 157 151 139 0.69041382217154423 8 6180 38 5660 1 5581
22486 -0.48777291723430671 1.407483192021419 4.1147519626640738 138 142 143 1.6496558071213829 8 3274 6 4057 35 5569 37 5072 5 5065 12 5492 32 7297 3 5479 41 5414 4 6274 17 5661 2 6010 40 5577 33 5543 16 6216 23 6053 39 7339 9 5703 24 7440
1732 1.6030558067500258 3.3632964985525073 3.4591272598670351 51 54 47 0.99700151224721267 8 6178 38 5629 1 5563 18 5704 26 5091
22485 0.60139422493101147 2.6662857531787019 2.8274352468353721 99 96 84 1.4524438376538396 8 1635 6 3327 13 3466 3 2064 14 3082 18 5264 27 5048
1731 -0.87998047139330438 3.3277071703363794 3.2677586010897768 177 166 148 0.27641286161814688 8 6176 38 5647 1 5577 10 4679
22484 1.3398053149382299 1.9807224728062374 3.475220009087391 154 157 154 1.5013145485860224 13 1158 19 1156 18 4052 32 1503 12 1281 3 1470 41 1339 17 4002 27 3536 11 1454 29 4650 4 4875 7 4094 9 3171 24 5828 33 1342
1729 0.92683281533417172 3.2858124179401349 3.0980136328758858 196 170 141 1.5268241895146077 8 6172 38 5911 1 5832 19 6061 6 5091 13 5249 35 6797 37 4751 5 3832 18 5584 26 4844 31 6212 36 6239 34 6059
22482 -1.6502070386622896 2.3525625790276736 3.5012639593478201 100 99 95 3.3790525273132026 36 3498 34 3437
1728 -1.2460066999471811 3.2897771426811691 3.2742434760366965 97 84 69 1.29715356308637 8 6171 38 5648 1 5576 19 5959 6 5072 13 5654 35 6809 5 5736 18 5685 10 5085 32 7002 12 5394 3 5222 41 4840 4 4934 14 4878 15 4990 36 6011 20 4385 21 3444
22481 -0.96295287564242693 1.9481209868343112 3.4880954166622424 50 37 28 2.554323981396748 36 4639 34 3311
1727 -1.5488010995433437 3.289923751463097 3.2449146043838843 159 152 138 0.64011593957423174 8 6170 38 5650 1 5578 6 5069 35 6811 10 4670
22480 -0.13003160055280011 2.2203496797756861 3.1137967130281292 185 165 141 1.4417563112430303 36 4570 34 3215
1726 2.4606117684632518 3.294008000371111 3.5761824746555435 38 31 25 1.300823257091686 8 6169 38 5170 1 5110 35 5928 36 5469
22479 -0.71010624972588166 3.7207895578253245 3.3719464263144232 36 22 8 2.0817633911249565 36 3907 34 1995 38 2208 1 2030 13 2342 31 5711
1725 -0.17583896929625975 3.2613497975083248 3.1846955511069206 189 172 152 1.3472303483046901 8 6168 38 5638 19 5955 6 5079 13 5643 35 6800 37 5294 5 4704 18 5562 10 4677 32 4892 41 3370 30 7137 27 5348 12 5013 25 5115 31 6144 36 6252 34 5796
22478 1.0035550841935295 3.093587223844243 3.0072145160202863 96 79 58 1.2450992910849745 8 3851 38 3366 1 4334 31 5527 36 4691 34 3309 10 4657 14 4544
1724 1.0202725026180317 3.2167644623122631 3.0831584084699935 198 177 150 1.4752059520028871 8 6167 38 5619 1 5551 19 5783 10 5088 14 4931 31 6010 36 5461 34 5289
22477 -0.58601380141333004 3.7234470366216095 3.360881290706085 200 178 149 1.3213899401891489 38 6091 1 6012 31 6262 36 6554 34 6514 13 6115 35 7840 37 5728 28 4384
1723 -1.8056374396346238 3.2117203924687314 3.2168822925258667 166 158 145 1.1187391518536518 8 6166 38 5645 1 5574 35 6803 5 5724 10 4655 15 4988
22476 0.84954015254683235 3.0044592396187917 2.903378783804091 217 195 168 1.9449098481506102 6 1827 13 1879 26 4240 18 4944 34 1278 18 4400 31 5063
1722 -1.8011745654225058 3.2086152237689127 3.1941811761738217 166 158 145 1.1155019268522941 8 6165 38 5644 1 5573 35 6802 37 5296 5 5723 32 7491
22475 0.93106443555711527 3.2521058061051922 3.0158588533669453 156 137 107 1.4057391515543161 36 6703 34 6570
1721 2.0113519874381902 3.218415022884062 3.4070215233015442 174 136 117 1.6868651319825705 8 6163 38 5612 1 5550 6 5470 13 5209 35 6775 37 5269 10 5344 14 5171 19 5952
22474 2.3393394814031194 4.3697183390909071 3.839210199372777 185 132 91 1.8102475794123627 36 6556 34 6521
1719 0.96262122472435974 3.1481302931573474 3.0102463905802117 207 186 157 1.2370825092728597 8 6160 38 5607 1 5544 19 5776 6 5075 13 5228 35 5930 37 4719 5 5378 10 5341 26 4994 18 5571 14 5158 31 6004 36 5927 34 5281
22472 -1.4431060477674518 3.7198270276579604 3.2514153283449314 177 160 134 0.6384038620986463 36 6684 34 6518
1718 1.6892824147654999 3.182064789986248 3.5237846370389203 52 43 36 1.3498362894955085 8 6159 38 5613 6 5463 35 6767 37 5670 5 5754 18 5690 14 5157
1717 -0.43682191668430465 3.1472013478833105 3.1776264187034062 84 71 63 1.3252882255299441 8 6158 38 5627 19 5948 6 5462 13 5635 5 5737 18 5680 12 4993 3 5241 41 4865 32 6224 4 4985 28 4559 30 7309 27 5340 14 4885 31 6140 36 5964 25 5216
1716 1.9772508516279588 3.1658076568131812 3.4943480067846506 52 44 41 2.0351788647739171 8 6157 38 5155 1 5086 6 5466 13 5610 35 6766 37 5671 26 5078
22469 2.4007640827809595 4.6731538688916112 4.1678772292570914 64 46 32 2.2119060515096467 36 6098 34 6178
1715 1.1988977571479682 3.1349823400202323 3.1173504406069217 129 109 85 0.93001105180260801 8 6156 38 5604 1 5542 19 5777 18 5563 10 5337
22468 -1.0249346786275286 2.0543449688966224 3.4918496494690121 129 103 86 2.6241130405508746 36 6218 34 5773
1714 0.89754289675335042 3.1251565172860025 2.9848586163596673 142 121 94 1.3839271404467275 8 6155 38 5156 1 5541 19 5774 6 5472 13 5629 35 6777 37 5281 5 5373 10 4660 14 4926 31 6002 36 5451 26 5084 18 5696 34 4477
22467 3.9892056279821633 0.29352573497424117 5.3632163232432228 192 177 148 1.055311728643239 36 5829 38 5988 34 5750
1713 -0.12716586161507731 3.134222108729686 3.1340258278023501 168 147 126 1.1195023536689148 8 6154 38 5621 1 5552 19 5944 6 5464 13 5917 35 7268 37 5687 5 5339 18 5681 32 6238 3 4609 41 4294 28 4576 27 5341 31 6139 36 6247 34 5787
22466 -1.6292746066419583 3.7372300862309218 3.9751161837286144 30 31 25 1.8855892330307089 13 6359 34 5562
1712 -0.36155164736981227 3.1179351636503805 3.2181387636817735 65 57 46 1.2111623883006319 8 6153 38 5186 1 5103 19 5784 6 5052 13 5631 35 5922 37 5279 5 5326 18 5678 10 5072 12 5381 3 4587 32 6216 4 3815 28 4562 30 7316 27 5231 25 5221 14 4876 31 6021 36 5515
22465 -1.4070124132695612 3.8981628890046176 3.3083876038825202 97 86 68 0.15421301027139908 36 5718 34 5509
1711 -1.7157340085047261 3.0962991514406828 3.2703638923270013 172 163 147 1.0592132012907842 8 6151 38 5212 6 5455 35 6780 37 5686 32 6976 15 4969 32 7474
22464 2.2430168680182803 4.3919762270070741 3.8817571608718278 135 98 69 1.4765880188865999 36 5022 34 5508
1709 2.5371189851698102 3.059831218890273 3.5889836814994882 127 108 94 1.5766872702555361 8 6147 38 5137 6 5457 35 6744 37 5243 36 4690 20 5060 5 5748
22462 -1.3568199058085755 3.0291414886000108 3.3150662016681371 89 81 68 2.0021451197011522 36 5996 34 5393
1708 1.9865864039773828 3.029685098730722 3.4692745246004186 138 113 98 1.5797681507585526 8 6144 38 5138 1 5540 19 5772 6 5456 13 5176 35 6747 37 5246 5 5345 15 5001 29 5177 20 4455 21 3994
22461 -1.4991521307004609 2.468555026196352 3.5948787614637312 83 83 75 2.5728307896833194 36 6244 34 5354
1707 -0.86259220141334192 2.9675945428747497 3.2442694627713271 69 65 56 1.0296238432164131 8 6142 38 5614 1 5543 6 5450 13 5618 35 6761 37 5669 5 5297 18 5671 10 5052 32 6973 12 5363 3 5203 41 4817 4 4914 28 4542 30 7419 27 5334 14 4864 15 4966 20 4382
22460 2.567966934751551 3.5632645547692166 3.5862956384266664 99 77 63 0.28037838899940842 36 5959 34 5351
1706 1.5605684312095012 2.9636508708767897 3.3251244627325671 49 40 28 0.48290087162551953 8 6139 38 5595 1 5532 10 5488 36 5440
22459 -0.1091202406510525 2.1801592686156792 3.0714881965658321 0 0 0 1.5139404601256383 19 5723 36 5868
1705 1.5633328797285242 2.9674154136123403 3.3228762839149986 49 40 28 0.78335374965247961 8 6138 38 5594 1 5531 19 5076 6 5043 35 4505 10 5487
22458 -0.1130791833951986 4.1082345405647303 3.4327809357014156 78 72 63 1.1917942520070217 36 6071 34 4859
1704 2.4394895821906957 2.9687723968709765 3.6067434154988995 30 28 21 1.9117152835297808 8 6135 38 5125 1 5533 6 5031 35 5859 37 5238 5 5333 12 4924 32 6974 41 5286 3 5246
22457 -0.9291803840017222 3.7265541679028815 3.3529202237946016 172 152 125 1.1083108182505865 35 4900 36 5004 34 4807
1701 -1.8400744381929701 2.8889060553997474 3.294598586446214 72 65 55 1.8401113743868629 8 6130 38 5171 1 5083 6 5442 5 5257 32 6947 3 5171 4 5597 10 4598 15 4599 33 3198 20 4350
22454 -1.3341323668399596 2.2412119265459913 3.4558107054380138 0 0 0 1.2138734075443658 19 5437 36 5452
1700 1.3683829280039668 2.8660417063356989 3.1663678248386318 100 84 63 1.0320665314741968 8 6129 38 5589 1 5522 19 5761 6 5030 35 5858 13 4549 37 4641 18 5298 10 5317 26 4789 27 1441 14 5142
22453 -1.1167631612726292 2.0244731452046074 3.3891515091549755 0 0 0 0.24323946477395059 19 5406 36 5414
1699 1.1611665469361954 2.8673960021865286 3.0525396157504394 127 110 92 1.6052805228080997 8 6128 38 5588 1 5518 19 5474 6 5035 13 4555 35 5860 37 4649 31 5990 18 5299 26 4972 36 5417
22452 4.071902522523299 0.17822308392695049 4.9820417193579098 88 72 46 0.5299002049899515 36 5239 34 4359
1698 2.6053767802400771 2.8741999126883933 3.6292455045195706 34 29 23 1.4191003691836983 8 6127 38 5585 1 5809 35 6720 5 5731 36 5907
22451 4.1019509534660399 0.15538017387939035 4.9295810413397669 239 227 199 0.57799629498151339 36 4352 34 4344
1697 2.538739684398069 2.8266146569652371 3.6109939620188722 169 150 133 1.686549297476055 8 6123 38 5579 1 5517 6 5441 35 7238 37 5228 5 5727 32 6961 12 4910 3 5236 41 4875
22450 -0.84884119268512392 3.8522778623920617 3.4556311588426567 177 161 135 1.3280011786916357 38 2298 34 3762
1696 -1.7587203338657782 2.8060051833715347 3.3359859977149138 72 71 66 0.80065728163532468 8 6122 38 5157 1 5069
22449 2.0565932687051669 4.2134422138931349 3.6871676601187398 187 161 143 2.2378249355085371 38 3713 34 3703
1693 1.5428858776813368 2.7363335353510068 3.3060619633222195 62 51 42 1.3198749416517146 8 6117 38 5573 1 5512 6 5003 37 3579 13 1657 5 4634 10 5480 26 4521 15 5248
22446 -1.1451394929456111 2.4318149135073694 3.4763686097987661 190 159 137 1.9405933894740206 19 4334 36 1651 34 3417
1692 -1.5082525701133387 2.7259523415675866 3.5332343145071645 109 106 99 1.5983170729076928 8 6114 6 4981 13 5888 35 6717 37 5645 5 5227 32 6906 12 5605 3 5592 41 4752 14 4415 10 4571 15 4568 11 5347 20 3742
22445 -0.59963862208939245 2.4652312685712747 3.4354965649358173 150 132 115 1.9779860989090181 36 4709 34 3374
1691 -1.1047942569242433 2.6341563652631153 3.4651918681811198 165 136 119 1.2232506349231298 8 6110 38 5592 1 5519 6 5424 35 7234 37 5639 5 5674 18 5652 32 7421 12 5757 41 5215 4 5582 28 4711 27 5389 11 5636
1689 1.4695166012202754 2.5707671404586705 3.2718728056752098 109 101 90 1.2602837399381455 8 6107 38 5083 1 5497 19 5454 6 4986 35 5809 13 4484 37 4583 5 5284 18 5532 10 5292 32 6128 3 4577 41 4260 17 4204 26 4752 14 5109 15 5237 31 5782 20 5022 21 4923
1688 2.4275422778302613 2.5468016677658176 3.866142093721324 121 112 93 1.7265812414694406 8 6106 38 5558 1 5500 6 5421 10 5467 14 5281
22441 -1.4281280353497239 3.8011076141899438 3.2666482463602766 121 103 79 0.11851608845950978 36 2428 34 2100
1687 2.3889356188079214 2.5472477029323892 3.8082032660229741 121 112 93 1.3150579929411317 8 6105 38 5557 1 5499 6 5420 13 5561 35 6695 37 5619 5 5984 32 7422 12 4885 3 5610 41 5250 4 6071 29 5684
1686 -1.0550904494371649 2.5503944608766074 3.4241532931768606 122 102 91 0.7622699366399287 8 6103 38 5586 1 5804
22439 2.817546478717313 3.4664347385041028 3.6556532122572909 49 33 18 0.83222053646991379 36 3517 38 3451 34 1586
1685 1.8732706627058839 2.5386378286481595 3.5150915580365605 96 79 59 1.6301062478734976 8 6101 38 5081 1 5004 19 5458 6 4971 35 5802 13 5123 37 5206 5 5270 18 5531 31 5788 36 4606 34 3273 26 4954
22438 0.82145028810032361 3.4521719578930132 3.1734324707348658 195 162 131 0.32530178851028879 36 1794 34 1581
1684 0.49514356616089239 2.4894868830704562 2.8646885654746219 82 82 79 1.5084668715162262 8 6097 38 5551 6 5428 5 5711 15 5246
1683 1.2053712344588283 2.4510596702236307 3.2306027929813745 133 130 118 0.69682841484209312 8 6093 38 5065 10 5007
22436 -0.91296679487751853 2.007075070233781 3.4081040467519172 0 0 0 0.10963782159917326 19 4917 36 4627
1682 1.4799300392316994 2.428857426931287 3.2987792949267614 146 131 110 0.99929851775324696 8 6091 38 5546 13 5116 35 6687 37 5200 5 5693 18 5519 10 5285 32 7434 41 4834 26 5054 14 5100 15 5222 20 5009
22435 -0.84834686852987617 1.9053291123405751 3.535205046586364 0 0 0 0.47511291691034913 19 4200 31 4960
1681 0.43378580657792531 2.4150564896866165 2.8665079421788757 188 183 164 1.50676104101839 8 6090 38 5542 1 5479 19 5899 13 5874 35 7217 18 5758 41 5264 4 5682 26 5122 36 5349 2 4622 40 4345 7 3143 20 5016
22434 3.3731807003675955 -1.3242881104855813 6.1822739131571911 144 127 95 0.19659659178606737 36 2956 34 1131
1680 -0.49301433413344609 2.3568407695076794 3.2829938908072278 201 187 174 1.3738539158134817 8 6088 38 5555 13 5864 35 6683 37 5198 18 5497 5 4518 32 6900 12 5600 3 5141 41 4762 4 4855 17 5614 26 4919 30 7512 27 5380 11 5644 2 4491
22433 0.1289416051412143 1.4766587832185711 3.2617062221563273 97 69 50 0.17641402404964615 10 4924 34 993
1679 -1.7365228717871224 2.3283223489822276 3.3768088963497602 69 66 61 2.212412869845894 8 6087 38 5565 1 5498 6 4234
22432 3.8776797514393535 -0.62202472478866788 5.1457205384206377 86 65 38 0.84010426375008851 19 2556 36 2869 34 932
1677 -1.7822199455497441 2.3316292939957304 3.2903552342569489 73 69 66 1.2254810274678409 8 6085 38 5877 1 5796
22430 2.2463151667636696 2.2611014067845816 3.9264219939379426 49 37 28 0.016660524123602319 16 6273 22 5705
1676 -1.685259060622198 2.2863238618007404 3.5009478482551706 60 57 52 1.7514757108046113 8 6083 13 5542 6 4228 35 6668
22429 -0.033667033885151729 1.6233164549991919 3.5102976377883675 168 163 157 3.0302155813624387 16 6568 22 5607
1675 -1.5801527862108873 2.2548757500516374 3.5209661239217938 68 65 60 0.90161732762680413 8 6082 6 4920 13 5538 35 6663 5 5177
22428 2.0579147233250619 2.1225756547266763 4.0574145535736621 0 0 0 1.7023040561350449 20 4960 21 4977 15 5169
1674 1.4566178840142303 2.2636071116716381 3.320894231358575 128 118 106 1.122302689351335 8 6081 38 5535 1 5769 19 5734 35 6653 5 5680 37 5181 18 5648 10 5454 32 6909 31 5764
22427 2.1126441794236319 2.1051421267891222 4.2222071076455956 0 0 0 0.24562474203684889 20 4948 21 4988
1673 -1.6915570598181846 2.2322205247328992 3.3861577766078792 115 112 107 2.226401767697511 8 6080 38 5556 1 5489 6 4918 35 7206
